ply
format ascii 1.0
element vertex 1289
property float x
property float y
property float z
property uchar red
property uchar green
property uchar blue
end_header
0.0330764 -0.211004 -0.608 161 109 103
0.0342169 -0.211004 -0.608 165 108 106
0.0353575 -0.211004 -0.608 168 107 96
0.036438 -0.210657 -0.607 164 107 87
0.0375767 -0.210657 -0.607 160 107 84
0.0387154 -0.210657 -0.607 159 107 81
0.0398541 -0.210657 -0.607 157 108 83
0.0409928 -0.210657 -0.607 158 107 86
0.0421315 -0.210657 -0.607 160 107 85
0.0431989 -0.21031 -0.606 163 106 85
0.0444089 -0.210657 -0.607 166 104 87
0.0456226 -0.211004 -0.608 164 105 89
0.0467632 -0.211004 -0.608 162 108 90
0.0479825 -0.211352 -0.609 163 108 91
0.049125 -0.211352 -0.609 164 112 89
0.0504325 -0.212046 -0.611 163 108 88
0.0516631 -0.212393 -0.612 161 106 81
0.0529837 -0.213087 -0.614 161 107 74
0.0541356 -0.213087 -0.614 160 108 88
0.0553774 -0.213434 -0.615 162 113 102
0.0565311 -0.213434 -0.615 163 125 97
0.0577786 -0.213781 -0.616 166 127 92
0.0590299 -0.214128 -0.617 169 138 103
0.0602848 -0.214475 -0.618 155 124 114
0.0614442 -0.214475 -0.618 142 122 96
-0.00353988 -0.219472 -0.629 79 72 78
-0.00235992 -0.219472 -0.629 115 108 116
-0.00117808 -0.219124 -0.628 152 110 100
0 -0.219124 -0.628 147 112 84
0.00117621 -0.218775 -0.627 143 105 82
0.00234866 -0.218426 -0.626 146 106 81
0.00351174 -0.217728 -0.624 150 106 83
0.00466731 -0.21703 -0.622 149 107 86
0.00581538 -0.216332 -0.62 149 107 88
0.00697846 -0.216332 -0.62 150 107 91
0.0081284 -0.215983 -0.619 152 107 93
0.0092896 -0.215983 -0.619 153 107 95
0.0104339 -0.215634 -0.618 154 107 96
0.0115932 -0.215634 -0.618 154 107 98
0.0127319 -0.215285 -0.617 154 107 93
0.0138669 -0.214936 -0.616 152 108 88
0.0149981 -0.214588 -0.615 150 107 92
0.0161517 -0.214588 -0.615 152 107 95
0.0173054 -0.214588 -0.615 154 112 100
0.0184591 -0.214588 -0.615 156 114 105
0.0195809 -0.214239 -0.614 158 113 108
0.0207328 -0.214239 -0.614 159 116 111
0.0218489 -0.21389 -0.613 161 114 106
0.0229614 -0.213541 -0.612 162 113 101
0.0241094 -0.213541 -0.612 163 114 96
0.0252575 -0.213541 -0.612 163 120 92
0.0263624 -0.213192 -0.611 164 115 96
0.0275086 -0.213192 -0.611 165 114 100
0.0286548 -0.213192 -0.611 166 115 100
0.029801 -0.213192 -0.611 165 116 99
0.0308459 -0.212494 -0.609 164 114 99
0.0319883 -0.212494 -0.609 163 109 98
0.0331308 -0.212494 -0.609 163 110 99
0.0342732 -0.212494 -0.609 169 112 100
0.0353575 -0.212145 -0.608 175 106 95
0.0364981 -0.212145 -0.608 168 108 91
0.0375767 -0.211796 -0.607 162 107 86
0.0387792 -0.212145 -0.608 161 107 82
0.0399198 -0.212145 -0.608 160 107 85
0.0410603 -0.212145 -0.608 160 108 88
0.0422009 -0.212145 -0.608 160 107 86
0.0432702 -0.211796 -0.607 164 106 84
0.0444089 -0.211796 -0.607 169 104 88
0.0456226 -0.212145 -0.608 164 103 92
0.0468401 -0.212494 -0.609 160 107 92
0.0479825 -0.212494 -0.609 157 107 93
0.049125 -0.212494 -0.609 155 107 92
0.0504325 -0.213192 -0.611 158 108 92
0.0516631 -0.213541 -0.612 161 111 86
0.0528974 -0.21389 -0.613 162 114 81
0.0541356 -0.214239 -0.614 164 117 91
0.0553774 -0.214588 -0.615 164 121 102
0.056623 -0.214936 -0.616 164 126 105
0.0578724 -0.215285 -0.617 167 127 107
0.0590299 -0.215285 -0.617 171 127 100
0.0602848 -0.215634 -0.618 150 127 92
0.0614442 -0.215634 -0.618 129 91 66
-0.00353988 -0.220652 -0.629 40 6 59
-0.00235617 -0.220302 -0.628 84 70 117
-0.00117808 -0.220302 -0.628 127 119 99
0 -0.220302 -0.628 138 113 81
0.00117808 -0.220302 -0.628 149 107 81
0.00235241 -0.219951 -0.627 151 108 82
0.00351737 -0.219249 -0.625 152 110 84
0.00468232 -0.218898 -0.624 151 106 86
0.00583414 -0.218197 -0.622 149 108 88
0.00697846 -0.217495 -0.62 151 107 91
0.00814153 -0.217495 -0.62 152 108 94
0.0092896 -0.217144 -0.619 154 105 97
0.0104508 -0.217144 -0.619 156 104 99
0.011612 -0.217144 -0.619 156 104 102
0.0127526 -0.216794 -0.618 155 104 94
0.0138894 -0.216443 -0.617 153 106 86
0.0150224 -0.216092 -0.616 151 106 90
0.0161517 -0.215741 -0.615 152 110 94
0.0173336 -0.216092 -0.616 153 114 99
0.0184591 -0.215741 -0.615 155 113 105
0.0196128 -0.215741 -0.615 157 113 110
0.0207328 -0.21539 -0.614 158 112 115
0.0218489 -0.21504 -0.613 160 112 109
0.0229614 -0.214689 -0.612 160 112 103
0.0241094 -0.214689 -0.612 161 112 102
0.0252575 -0.214689 -0.612 162 113 101
0.0264056 -0.214689 -0.612 162 114 102
0.0275086 -0.214338 -0.611 163 113 104
0.0286548 -0.214338 -0.611 165 111 102
0.029801 -0.214338 -0.611 164 115 101
0.0308459 -0.213636 -0.609 164 114 99
0.0319883 -0.213636 -0.609 162 112 97
0.0331308 -0.213636 -0.609 161 111 95
0.0342732 -0.213636 -0.609 163 108 94
0.0353575 -0.213286 -0.608 166 106 95
0.0364981 -0.213286 -0.608 160 105 96
0.0376386 -0.213286 -0.608 153 100 89
0.0387792 -0.213286 -0.608 155 101 83
0.0399198 -0.213286 -0.608 156 102 87
0.0411279 -0.213636 -0.609 155 108 91
0.0422009 -0.213286 -0.608 153 108 87
0.0433415 -0.213286 -0.608 158 109 83
0.044482 -0.213286 -0.608 163 110 89
0.0456976 -0.213636 -0.609 161 108 95
0.0468401 -0.213636 -0.609 160 106 95
0.0479825 -0.213636 -0.609 161 108 96
0.049125 -0.213636 -0.609 162 110 96
0.0504325 -0.214338 -0.611 161 110 96
0.0516631 -0.214689 -0.612 161 118 92
0.0528974 -0.21504 -0.613 161 114 88
0.0541356 -0.21539 -0.614 161 116 95
0.0553774 -0.215741 -0.615 163 121 103
0.056623 -0.216092 -0.616 166 131 113
0.0578724 -0.216443 -0.617 157 126 123
0.0590299 -0.216443 -0.617 149 109 97
0.0601873 -0.216443 -0.617 120 85 71
0.0613448 -0.216443 -0.617 92 61 36
-0.00353988 -0.221832 -0.629 2 3 45
-0.00235617 -0.22148 -0.628 52 32 69
-0.00117808 -0.22148 -0.628 103 86 84
0 -0.22148 -0.628 129 114 100
0.00117808 -0.22148 -0.628 156 112 93
0.00235241 -0.221127 -0.627 155 110 86
0.00351737 -0.220422 -0.625 155 108 89
0.00468232 -0.220069 -0.624 152 106 91
0.00584352 -0.219716 -0.623 150 108 93
0.00700097 -0.219364 -0.622 151 107 96
0.00816779 -0.219364 -0.622 153 105 99
0.00930461 -0.218658 -0.62 156 103 102
0.0104677 -0.218658 -0.62 159 103 106
0.011612 -0.218306 -0.619 158 104 111
0.0127526 -0.217953 -0.618 157 105 94
0.0139119 -0.217953 -0.618 155 106 77
0.0150224 -0.217248 -0.616 153 109 88
0.016178 -0.217248 -0.616 153 115 99
0.0173336 -0.217248 -0.616 153 114 102
0.0184892 -0.217248 -0.616 155 113 105
0.0196128 -0.216895 -0.615 157 113 109
0.0207665 -0.216895 -0.615 158 113 113
0.0219202 -0.216895 -0.615 159 114 108
0.0230364 -0.216542 -0.614 159 115 104
0.0241488 -0.21619 -0.613 160 115 109
0.0252988 -0.21619 -0.613 160 116 114
0.0264056 -0.215837 -0.612 161 114 112
0.0275086 -0.215484 -0.611 162 112 111
0.0286548 -0.215484 -0.611 164 113 108
0.029801 -0.215484 -0.611 164 115 105
0.0308459 -0.214779 -0.609 164 114 101
0.0319883 -0.214779 -0.609 161 113 97
0.0331308 -0.214779 -0.609 159 111 97
0.0342732 -0.214779 -0.609 158 105 96
0.0354157 -0.214779 -0.609 158 105 97
0.0365581 -0.214779 -0.609 151 103 97
0.0377005 -0.214779 -0.609 145 102 92
0.038843 -0.214779 -0.609 149 91 86
0.0399854 -0.214779 -0.609 153 108 88
0.0411279 -0.214779 -0.609 150 109 91
0.0422703 -0.214779 -0.609 147 110 89
0.0434127 -0.214779 -0.609 152 111 88
0.0445552 -0.214779 -0.609 158 111 95
0.0458477 -0.215484 -0.611 159 115 102
0.0469939 -0.215484 -0.611 160 114 98
0.0481401 -0.215484 -0.611 164 113 93
0.0492863 -0.215484 -0.611 169 113 94
0.050515 -0.215837 -0.612 165 113 94
0.0517475 -0.21619 -0.613 161 114 93
0.0529837 -0.216542 -0.614 159 115 92
0.0541356 -0.216542 -0.614 158 117 100
0.0553774 -0.216895 -0.615 163 122 108
0.0565311 -0.216895 -0.615 168 130 96
0.0577786 -0.217248 -0.616 148 125 84
0.0589342 -0.217248 -0.616 128 79 62
0.0601873 -0.2176 -0.617 91 56 40
0.0613448 -0.2176 -0.617 55 36 30
-0.00117808 -0.222658 -0.628 52 54 70
0 -0.223012 -0.629 99 96 120
0.00117808 -0.222658 -0.628 146 118 105
0.00235241 -0.222303 -0.627 149 113 91
0.00352862 -0.222303 -0.627 152 105 94
0.00468982 -0.221594 -0.625 150 107 97
0.0058529 -0.22124 -0.624 148 108 99
0.00701222 -0.220885 -0.623 149 106 101
0.00816779 -0.22053 -0.622 150 103 104
0.00933462 -0.22053 -0.622 153 102 107
0.0105014 -0.22053 -0.622 157 101 113
0.0116308 -0.219821 -0.62 156 106 120
0.0127732 -0.219467 -0.619 155 107 94
0.0139344 -0.219467 -0.619 153 109 69
0.0150468 -0.218758 -0.617 151 112 86
0.0162043 -0.218758 -0.617 152 113 104
0.0173617 -0.218758 -0.617 153 114 104
0.0184892 -0.218403 -0.616 155 113 105
0.0196447 -0.218403 -0.616 156 112 108
0.0208003 -0.218403 -0.616 156 113 112
0.0219202 -0.218049 -0.615 156 118 108
0.0230364 -0.217694 -0.614 157 119 105
0.0241882 -0.217694 -0.614 158 121 116
0.0252988 -0.217339 -0.613 159 120 128
0.0264487 -0.217339 -0.613 160 120 123
0.0275536 -0.216985 -0.612 162 117 118
0.0286548 -0.21663 -0.611 164 115 113
0.029801 -0.21663 -0.611 165 116 109
0.0309472 -0.21663 -0.611 167 117 103
0.0320934 -0.21663 -0.611 163 115 98
0.0332396 -0.21663 -0.611 160 111 98
0.0342732 -0.215921 -0.609 159 109 99
0.0354157 -0.215921 -0.609 159 108 99
0.0365581 -0.215921 -0.609 156 106 99
0.0377005 -0.215921 -0.609 154 104 94
0.038843 -0.215921 -0.609 155 109 90
0.0399854 -0.215921 -0.609 156 114 90
0.0412629 -0.21663 -0.611 155 113 91
0.0422703 -0.215921 -0.609 154 113 92
0.0434127 -0.215921 -0.609 157 112 93
0.0447015 -0.21663 -0.611 161 112 101
0.0458477 -0.21663 -0.611 160 113 110
0.0469939 -0.21663 -0.611 158 114 100
0.0481401 -0.21663 -0.611 161 113 91
0.0492863 -0.21663 -0.611 164 113 92
0.0505976 -0.217339 -0.613 160 113 93
0.0518319 -0.217694 -0.614 157 113 95
0.0529837 -0.217694 -0.614 158 115 97
0.0542237 -0.218049 -0.615 158 118 105
0.0553774 -0.218049 -0.615 157 123 114
0.0565311 -0.218049 -0.615 155 129 80
0.0577786 -0.218403 -0.616 113 93 46
0.0589342 -0.218403 -0.616 71 49 27
0.0600898 -0.218403 -0.616 60 28 9
0.0613448 -0.218758 -0.617 49 7 24
0 -0.224192 -0.629 69 78 100
0.00117808 -0.223836 -0.628 137 109 98
0.00235617 -0.223836 -0.628 143 117 97
0.00352862 -0.223479 -0.627 149 111 100
0.00469733 -0.223123 -0.626 147 108 103
0.00586228 -0.222767 -0.625 146 108 102
0.00703473 -0.222767 -0.625 146 106 101
0.00819406 -0.22241 -0.624 147 107 101
0.00934963 -0.222054 -0.623 151 108 101
0.0105183 -0.222054 -0.623 155 108 106
0.0116683 -0.221697 -0.622 154 108 110
0.0127938 -0.220984 -0.62 154 110 98
0.0139344 -0.220628 -0.619 151 112 86
0.0150712 -0.220272 -0.618 149 112 95
0.0162305 -0.220272 -0.618 151 111 105
0.0173899 -0.220272 -0.618 154 113 102
0.0185192 -0.219915 -0.617 155 116 100
0.0196447 -0.219559 -0.616 156 111 105
0.0208003 -0.219559 -0.616 154 113 111
0.0219202 -0.219202 -0.615 153 115 108
0.0230364 -0.218846 -0.614 155 121 106
0.0241882 -0.218846 -0.614 157 121 111
0.0252988 -0.218489 -0.613 158 122 116
0.0264487 -0.218489 -0.613 160 120 113
0.0275536 -0.218133 -0.612 162 119 110
0.0286548 -0.217777 -0.611 164 119 108
0.029801 -0.217777 -0.611 167 120 106
0.0309472 -0.217777 -0.611 170 118 101
0.0320934 -0.217777 -0.611 166 117 97
0.0332396 -0.217777 -0.611 162 113 99
0.0343858 -0.217777 -0.611 161 110 101
0.035532 -0.217777 -0.611 160 109 100
0.0366782 -0.217777 -0.611 161 109 99
0.0378244 -0.217777 -0.611 163 109 98
0.0389705 -0.217777 -0.611 161 110 98
0.0401167 -0.217777 -0.611 159 112 98
0.0412629 -0.217777 -0.611 160 114 99
0.0424091 -0.217777 -0.611 161 113 97
0.0435553 -0.217777 -0.611 163 114 94
0.0447015 -0.217777 -0.611 165 113 99
0.0458477 -0.217777 -0.611 161 112 103
0.0469939 -0.217777 -0.611 157 112 97
0.0482189 -0.218133 -0.612 158 113 92
0.0493669 -0.218133 -0.612 159 114 97
0.0505976 -0.218489 -0.613 156 117 102
0.0518319 -0.218846 -0.614 154 116 100
0.0529837 -0.218846 -0.614 156 115 99
0.0542237 -0.219202 -0.615 159 119 96
0.0553774 -0.219202 -0.615 151 106 94
0.0565311 -0.219202 -0.615 143 84 58
0.0576848 -0.219202 -0.615 78 62 23
0.0588385 -0.219202 -0.615 14 26 24
0.0600898 -0.219559 -0.616 29 9 25
0.0793086 -0.224905 -0.631 25 21 13
0.0806199 -0.225262 -0.632 27 20 6
0.0820644 -0.225974 -0.634 30 19 9
0.083385 -0.226331 -0.635 34 19 13
0.0845763 -0.226331 -0.635 38 36 47
0.0857675 -0.226331 -0.635 55 90 82
0 -0.225372 -0.629 48 45 80
0.00117996 -0.225372 -0.629 94 100 92
0.00235617 -0.225014 -0.628 122 117 104
0.00353425 -0.225014 -0.628 150 114 107
0.00469733 -0.224297 -0.626 147 111 110
0.00587166 -0.224297 -0.626 145 109 105
0.00703473 -0.223939 -0.625 147 108 101
0.00819406 -0.223581 -0.624 149 108 98
0.00936464 -0.223581 -0.624 152 110 96
0.0105352 -0.223581 -0.624 155 113 98
0.011687 -0.223222 -0.623 155 113 101
0.0128351 -0.222864 -0.622 155 114 102
0.0139569 -0.222148 -0.62 153 113 103
0.0150956 -0.221789 -0.619 151 113 104
0.0162305 -0.221431 -0.618 153 113 106
0.0173899 -0.221431 -0.618 155 113 100
0.0185192 -0.221073 -0.617 155 111 95
0.0196447 -0.220714 -0.616 156 110 102
0.0208003 -0.220714 -0.616 155 110 110
0.0219559 -0.220714 -0.616 154 110 108
0.0230739 -0.220356 -0.615 155 119 107
0.0241882 -0.219998 -0.614 156 121 106
0.02534 -0.219998 -0.614 157 121 105
0.0264487 -0.219639 -0.613 159 121 103
0.0275536 -0.219281 -0.612 160 122 102
0.0287017 -0.219281 -0.612 162 124 102
0.0298498 -0.219281 -0.612 164 124 103
0.0309472 -0.218923 -0.611 166 124 100
0.0321459 -0.219281 -0.612 164 119 97
0.033294 -0.219281 -0.612 161 116 100
0.0343858 -0.218923 -0.611 160 113 104
0.035532 -0.218923 -0.611 159 109 101
0.0366782 -0.218923 -0.611 160 109 99
0.0378244 -0.218923 -0.611 161 107 102
0.0389705 -0.218923 -0.611 160 110 106
0.0401167 -0.218923 -0.611 159 108 107
0.0412629 -0.218923 -0.611 159 113 108
0.0424091 -0.218923 -0.611 160 113 102
0.0436266 -0.219281 -0.612 161 115 96
0.0447747 -0.219281 -0.612 161 116 96
0.0459227 -0.219281 -0.612 158 113 97
0.0471477 -0.219639 -0.613 154 111 95
0.0482977 -0.219639 -0.613 154 113 93
0.0494476 -0.219639 -0.613 154 116 102
0.0506801 -0.219998 -0.614 153 113 112
0.0518319 -0.219998 -0.614 153 110 106
0.05307 -0.220356 -0.615 149 115 101
0.0542237 -0.220356 -0.615 145 121 87
0.0553774 -0.220356 -0.615 116 92 74
0.0565311 -0.220356 -0.615 88 64 37
0.0576848 -0.220356 -0.615 59 32 1
0.0588385 -0.220356 -0.615 29 3 21
0.0794343 -0.226447 -0.632 32 26 17
0.0807475 -0.226805 -0.633 33 31 9
0.0820644 -0.227164 -0.634 34 36 16
0.083385 -0.227522 -0.635 38 39 23
0.0845763 -0.227522 -0.635 42 42 60
0.0857675 -0.227522 -0.635 50 79 97
0.00117996 -0.226552 -0.629 51 58 68
0.00235992 -0.226552 -0.629 101 117 96
0.00352862 -0.225832 -0.627 152 115 100
0.00469733 -0.225472 -0.626 148 113 105
0.00587166 -0.225472 -0.626 144 111 100
0.00703473 -0.225111 -0.625 147 110 95
0.00820719 -0.225111 -0.625 151 109 96
0.00936464 -0.224751 -0.624 153 114 98
0.0105352 -0.224751 -0.624 155 114 100
0.0117058 -0.224751 -0.624 156 114 103
0.0128557 -0.224391 -0.623 157 113 107
0.0140019 -0.224031 -0.622 155 113 112
0.01512 -0.223311 -0.62 153 113 108
0.0162568 -0.22295 -0.619 155 113 105
0.017418 -0.22295 -0.619 157 114 102
0.0185492 -0.22259 -0.618 156 110 98
0.0197085 -0.22259 -0.618 156 110 108
0.0208678 -0.22259 -0.618 155 111 118
0.0219915 -0.22223 -0.617 155 112 110
0.0231114 -0.22187 -0.616 155 118 103
0.0242276 -0.22151 -0.615 155 120 99
0.02534 -0.22115 -0.614 156 123 95
0.0264919 -0.22115 -0.614 158 124 97
0.0275987 -0.220789 -0.613 159 125 100
0.0287017 -0.220429 -0.612 160 125 101
0.0298498 -0.220429 -0.612 161 125 103
0.0309978 -0.220429 -0.612 163 123 102
0.0321459 -0.220429 -0.612 162 122 102
0.033294 -0.220429 -0.612 161 118 107
0.0343858 -0.220069 -0.611 159 116 112
0.035532 -0.220069 -0.611 158 110 106
0.0366782 -0.220069 -0.611 158 109 100
0.0378244 -0.220069 -0.611 159 109 103
0.0389705 -0.220069 -0.611 159 110 106
0.0401167 -0.220069 -0.611 159 114 109
0.0413305 -0.220429 -0.612 159 119 111
0.0424785 -0.220429 -0.612 160 117 98
0.0436266 -0.220429 -0.612 159 116 85
0.0448478 -0.220789 -0.613 158 115 90
0.0459978 -0.220789 -0.613 155 115 95
0.0471477 -0.220789 -0.613 152 114 93
0.0483765 -0.22115 -0.614 151 114 90
0.0495283 -0.22115 -0.614 150 114 98
0.0507626 -0.22151 -0.615 151 103 105
0.0519163 -0.22151 -0.615 152 102 107
0.05307 -0.22151 -0.615 141 101 109
0.0542237 -0.22151 -0.615 131 87 75
0.0553774 -0.22151 -0.615 82 30 41
0.0565311 -0.22151 -0.615 34 16 29
0.0576848 -0.22151 -0.615 39 3 17
0.0794343 -0.227633 -0.632 40 28 24
0.0807475 -0.227993 -0.633 39 37 18
0.0820644 -0.228353 -0.634 39 39 18
0.083385 -0.228713 -0.635 43 41 18
0.0845763 -0.228713 -0.635 47 50 44
0.0857675 -0.228713 -0.635 46 69 71
0.00117996 -0.227732 -0.629 26 16 44
0.00235992 -0.227732 -0.629 72 59 88
0.00352862 -0.227008 -0.627 118 102 94
0.00469733 -0.226646 -0.626 132 115 101
0.00587166 -0.226646 -0.626 146 123 95
0.00704599 -0.226646 -0.626 146 115 89
0.00820719 -0.226284 -0.625 147 111 94
0.00937964 -0.226284 -0.625 151 111 100
0.0105352 -0.225922 -0.624 154 111 102
0.0117058 -0.225922 -0.624 157 111 105
0.0128764 -0.225922 -0.624 161 112 113
0.0140244 -0.22556 -0.623 157 112 121
0.01512 -0.224474 -0.62 154 112 113
0.0162568 -0.224112 -0.619 155 114 105
0.017418 -0.224112 -0.619 155 115 103
0.0185492 -0.22375 -0.618 155 113 102
0.0197085 -0.22375 -0.618 154 111 114
0.0208678 -0.22375 -0.618 154 112 126
0.0219915 -0.223387 -0.617 154 114 113
0.023149 -0.223387 -0.617 153 116 100
0.024267 -0.223025 -0.616 153 119 92
0.0253813 -0.222663 -0.615 154 121 85
0.0264919 -0.222301 -0.614 156 124 91
0.0275987 -0.221939 -0.613 155 122 98
0.0287486 -0.221939 -0.613 154 121 101
0.0298986 -0.221939 -0.613 157 119 104
0.0310485 -0.221939 -0.613 160 118 105
0.0321984 -0.221939 -0.613 160 119 107
0.033294 -0.221577 -0.612 160 120 114
0.0344421 -0.221577 -0.612 156 117 121
0.0355901 -0.221577 -0.612 152 112 111
0.0367382 -0.221577 -0.612 156 109 101
0.0378244 -0.221215 -0.611 160 110 104
0.0390343 -0.221577 -0.612 158 113 107
0.0401824 -0.221577 -0.612 157 122 111
0.0413305 -0.221577 -0.612 157 121 115
0.0424785 -0.221577 -0.612 158 120 94
0.0436979 -0.221939 -0.613 156 114 74
0.0448478 -0.221939 -0.613 155 108 84
0.0459978 -0.221939 -0.613 151 113 94
0.0471477 -0.221939 -0.613 148 115 91
0.0483765 -0.222301 -0.614 148 114 88
0.0495283 -0.222301 -0.614 149 112 93
0.0507626 -0.222663 -0.615 143 112 99
0.0519163 -0.222663 -0.615 137 113 108
0.05307 -0.222663 -0.615 105 73 118
0.0543119 -0.223025 -0.616 72 53 63
0.0554675 -0.223025 -0.616 54 19 9
0.0565311 -0.222663 -0.615 37 1 21
0.07956 -0.22918 -0.633 36 30 30
0.080875 -0.229542 -0.634 34 27 28
0.0821938 -0.229904 -0.635 33 24 21
0.083385 -0.229904 -0.635 34 28 14
0.0845763 -0.229904 -0.635 35 58 29
0.00469733 -0.22782 -0.626 116 117 107
0.00587166 -0.22782 -0.626 148 121 97
0.00704599 -0.22782 -0.626 146 120 87
0.00822032 -0.22782 -0.626 144 110 93
0.00937964 -0.227456 -0.625 149 108 99
0.0105521 -0.227456 -0.625 154 111 102
0.0117246 -0.227456 -0.625 159 110 105
0.0128764 -0.227092 -0.624 165 111 105
0.014047 -0.227092 -0.624 160 113 106
0.01512 -0.225637 -0.62 156 113 104
0.0162568 -0.225273 -0.619 155 115 102
0.017418 -0.225273 -0.619 154 116 102
0.0185492 -0.224909 -0.618 153 118 102
0.0197085 -0.224909 -0.618 153 113 109
0.0208678 -0.224909 -0.618 153 113 115
0.0219915 -0.224545 -0.617 153 114 108
0.023149 -0.224545 -0.617 152 114 102
0.024267 -0.224181 -0.616 151 114 97
0.0253813 -0.223817 -0.615 153 115 93
0.0264919 -0.223453 -0.614 155 117 101
0.0276437 -0.223453 -0.614 152 120 110
0.0287955 -0.223453 -0.614 149 119 108
0.0299473 -0.223453 -0.614 153 118 106
0.0310485 -0.223089 -0.613 157 116 102
0.0321984 -0.223089 -0.613 158 115 98
0.0333484 -0.223089 -0.613 160 119 107
0.0344983 -0.223089 -0.613 153 118 116
0.0356483 -0.223089 -0.613 147 112 106
0.0367982 -0.223089 -0.613 154 110 96
0.0378863 -0.222725 -0.612 161 112 99
0.0390343 -0.222725 -0.612 158 116 102
0.0401824 -0.222725 -0.612 156 114 107
0.0413305 -0.222725 -0.612 156 113 113
0.0424785 -0.222725 -0.612 156 112 98
0.0436979 -0.223089 -0.613 154 112 83
0.0448478 -0.223089 -0.613 152 112 87
0.0459227 -0.222725 -0.612 148 112 91
0.0471477 -0.223089 -0.613 145 116 90
0.0483765 -0.223453 -0.614 146 117 89
0.0495283 -0.223453 -0.614 148 107 81
0.0507626 -0.223817 -0.615 135 95 74
0.0519163 -0.223817 -0.615 123 70 67
0.0531563 -0.224181 -0.616 68 46 59
0.0543119 -0.224181 -0.616 14 27 37
0.0554675 -0.224181 -0.616 27 8 16
0.07956 -0.230368 -0.633 32 27 34
0.080875 -0.230732 -0.634 29 24 23
0.0821938 -0.231096 -0.635 27 20 20
0.083385 -0.231096 -0.635 25 15 18
0.0845763 -0.231096 -0.635 24 11 25
0.00469733 -0.228995 -0.626 87 94 113
0.00588104 -0.22936 -0.627 131 126 99
0.00705724 -0.22936 -0.627 139 120 85
0.00822032 -0.228995 -0.626 147 110 91
0.00937964 -0.228629 -0.625 149 111 98
0.0105521 -0.228629 -0.625 152 112 101
0.0117246 -0.228629 -0.625 156 111 105
0.012897 -0.228629 -0.625 160 111 98
0.014047 -0.228263 -0.624 157 113 91
0.0151688 -0.227531 -0.622 154 114 95
0.0162831 -0.2268 -0.62 153 116 99
0.017418 -0.226434 -0.619 152 118 101
0.0185792 -0.226434 -0.619 149 119 103
0.0197085 -0.226068 -0.618 147 115 104
0.0208678 -0.226068 -0.618 151 115 105
0.0220272 -0.226068 -0.618 155 115 104
0.023149 -0.225702 -0.617 153 114 104
0.0242276 -0.224971 -0.615 152 114 103
0.0253813 -0.224971 -0.615 154 115 102
0.0264919 -0.224605 -0.614 156 117 112
0.0276437 -0.224605 -0.614 154 117 122
0.0287955 -0.224605 -0.614 151 118 115
0.0299473 -0.224605 -0.614 153 117 109
0.0310992 -0.224605 -0.614 155 114 99
0.032251 -0.224605 -0.614 159 117 90
0.0334028 -0.224605 -0.614 162 119 101
0.0344983 -0.224239 -0.613 156 117 112
0.0356483 -0.224239 -0.613 150 113 101
0.0367982 -0.224239 -0.613 154 113 91
0.0379482 -0.224239 -0.613 158 114 94
0.0390981 -0.224239 -0.613 156 114 97
0.0401824 -0.223873 -0.612 155 115 104
0.041398 -0.224239 -0.613 154 112 111
0.0425479 -0.224239 -0.613 153 107 102
0.0436979 -0.224239 -0.613 152 109 93
0.0448478 -0.224239 -0.613 150 110 90
0.0459978 -0.224239 -0.613 147 112 88
0.0471477 -0.224239 -0.613 144 118 89
0.0482977 -0.224239 -0.613 135 110 90
0.0495283 -0.224605 -0.614 127 103 70
0.0507626 -0.224971 -0.615 96 75 50
0.0519163 -0.224971 -0.615 65 48 25
0.0531563 -0.225337 -0.616 44 27 1
0.0543119 -0.225337 -0.616 23 3 12
0.0635565 -0.225337 -0.616 24 28 15
0.064712 -0.225337 -0.616 21 26 19
0.080875 -0.231921 -0.634 29 22 19
0.0821938 -0.232287 -0.635 26 17 20
0.083385 -0.232287 -0.635 24 14 22
0.0845763 -0.232287 -0.635 23 12 22
0.00588104 -0.230537 -0.627 115 108 79
0.0070685 -0.230904 -0.628 133 121 102
0.00823345 -0.230537 -0.627 151 109 99
0.00939465 -0.230169 -0.626 150 117 97
0.0105521 -0.229801 -0.625 150 117 103
0.0117246 -0.229801 -0.625 152 118 110
0.012897 -0.229801 -0.625 155 114 103
0.0140695 -0.229801 -0.625 154 114 95
0.0151688 -0.228698 -0.622 153 115 98
0.0162831 -0.227963 -0.62 151 117 100
0.0174461 -0.227963 -0.62 150 117 101
0.0185792 -0.227595 -0.619 146 120 102
0.0197404 -0.227595 -0.619 142 118 101
0.0208678 -0.227228 -0.618 149 117 101
0.0220272 -0.227228 -0.618 157 116 101
0.023149 -0.22686 -0.617 155 115 102
0.024267 -0.226492 -0.616 154 115 104
0.0253813 -0.226124 -0.615 156 115 106
0.0264919 -0.225757 -0.614 158 116 113
0.0276437 -0.225757 -0.614 156 117 120
0.0287955 -0.225757 -0.614 154 116 115
0.0299473 -0.225757 -0.614 154 116 110
0.0310992 -0.225757 -0.614 154 114 105
0.032251 -0.225757 -0.614 159 119 100
0.0334028 -0.225757 -0.614 165 118 109
0.0345546 -0.225757 -0.614 159 117 118
0.0357064 -0.225757 -0.614 154 116 108
0.0368583 -0.225757 -0.614 154 116 98
0.0379482 -0.225389 -0.613 155 115 98
0.0390981 -0.225389 -0.613 155 114 99
0.0401824 -0.225021 -0.612 155 112 99
0.041398 -0.225389 -0.613 153 111 100
0.0425479 -0.225389 -0.613 151 110 93
0.0436979 -0.225389 -0.613 150 109 87
0.0448478 -0.225389 -0.613 149 111 90
0.0459978 -0.225389 -0.613 146 113 92
0.0471477 -0.225389 -0.613 143 105 69
0.0482977 -0.225389 -0.613 124 97 45
0.0495283 -0.225757 -0.614 106 55 40
0.0507626 -0.226124 -0.615 57 14 35
0.0519163 -0.226124 -0.615 8 11 21
0.0635565 -0.226492 -0.616 26 28 10
0.064607 -0.226124 -0.615 24 30 11
0.0659745 -0.22686 -0.617 23 28 11
0.0672408 -0.227228 -0.618 22 26 11
0.0684001 -0.227228 -0.618 21 21 9
0.0695594 -0.227228 -0.618 23 20 7
0.0810026 -0.233478 -0.635 28 20 10
0.0821938 -0.233478 -0.635 25 16 13
0.083385 -0.233478 -0.635 24 14 17
0.0845763 -0.233478 -0.635 23 13 14
0.0070685 -0.232082 -0.628 100 99 120
0.00824658 -0.232082 -0.628 142 108 108
0.00939465 -0.231343 -0.626 143 116 96
0.010569 -0.231343 -0.626 144 115 106
0.0117433 -0.231343 -0.626 147 115 116
0.012897 -0.230974 -0.625 150 115 108
0.0140695 -0.230974 -0.625 151 116 100
0.0152175 -0.230604 -0.624 152 118 101
0.0163356 -0.229865 -0.622 151 117 102
0.0174461 -0.229126 -0.62 150 117 101
0.0186092 -0.229126 -0.62 148 120 101
0.0197404 -0.228756 -0.619 146 120 99
0.0209016 -0.228756 -0.619 149 120 98
0.0220272 -0.228387 -0.618 153 120 99
0.023149 -0.228017 -0.617 152 116 100
0.024267 -0.227648 -0.616 152 112 105
0.0253813 -0.227278 -0.615 153 115 111
0.0264919 -0.226909 -0.614 154 111 114
0.0276437 -0.226909 -0.614 153 116 118
0.0287955 -0.226909 -0.614 153 114 115
0.0299473 -0.226909 -0.614 151 114 112
0.0310992 -0.226909 -0.614 150 114 111
0.032251 -0.226909 -0.614 155 114 110
0.0334028 -0.226909 -0.614 160 114 117
0.0345546 -0.226909 -0.614 156 116 124
0.0357064 -0.226909 -0.614 153 116 114
0.0368583 -0.226909 -0.614 153 114 105
0.0380101 -0.226909 -0.614 154 111 103
0.0390981 -0.226539 -0.613 153 111 101
0.0402481 -0.226539 -0.613 153 111 95
0.041398 -0.226539 -0.613 151 111 89
0.0425479 -0.226539 -0.613 149 111 85
0.0436979 -0.226539 -0.613 141 105 82
0.0448478 -0.226539 -0.613 133 99 89
0.0459227 -0.226169 -0.612 121 95 97
0.0471477 -0.226539 -0.613 109 92 49
0.0482977 -0.226539 -0.613 82 46 1
0.0494476 -0.226539 -0.613 55 1 11
0.0505976 -0.226539 -0.613 38 14 21
0.0519163 -0.227278 -0.615 22 5 17
0.0635565 -0.227648 -0.616 23 21 6
0.064607 -0.227278 -0.615 24 18 4
0.0659745 -0.228017 -0.617 24 15 7
0.0672408 -0.228387 -0.618 20 16 11
0.0684001 -0.228387 -0.618 16 17 11
0.069672 -0.228756 -0.619 22 18 12
0.0708332 -0.228756 -0.619 28 20 19
0.0801885 -0.235778 -0.638 28 23 7
0.0811302 -0.235039 -0.636 22 18 1
0.0825821 -0.235778 -0.638 17 16 7
0.083779 -0.235778 -0.638 19 17 13
0.0847094 -0.235039 -0.636 22 19 7
0.0859025 -0.235039 -0.636 18 20 2
0.00824658 -0.233261 -0.628 134 102 94
0.00940966 -0.232889 -0.627 136 116 98
0.0105859 -0.232889 -0.627 138 114 105
0.0117433 -0.232518 -0.626 142 114 112
0.0129176 -0.232518 -0.626 146 116 108
0.014092 -0.232518 -0.626 148 118 104
0.0152419 -0.232146 -0.625 151 117 104
0.0163356 -0.231032 -0.622 151 116 103
0.0174461 -0.230289 -0.62 151 116 101
0.0186092 -0.230289 -0.62 150 121 99
0.0197404 -0.229918 -0.619 150 121 100
0.0209016 -0.229918 -0.619 150 121 102
0.0220272 -0.229546 -0.618 150 119 99
0.0231865 -0.229546 -0.618 150 117 96
0.024267 -0.228803 -0.616 150 116 100
0.0253813 -0.228432 -0.615 150 115 104
0.0264919 -0.22806 -0.614 150 115 107
0.0276437 -0.22806 -0.614 151 115 110
0.0287955 -0.22806 -0.614 152 113 108
0.0299473 -0.22806 -0.614 149 111 106
0.0310992 -0.22806 -0.614 146 112 105
0.032251 -0.22806 -0.614 150 113 103
0.0334028 -0.22806 -0.614 155 116 108
0.0345546 -0.22806 -0.614 153 119 112
0.0357646 -0.228432 -0.615 152 116 107
0.0368583 -0.22806 -0.614 152 113 101
0.0380101 -0.22806 -0.614 153 110 99
0.0391619 -0.22806 -0.614 152 111 98
0.0402481 -0.227689 -0.613 152 112 89
0.041398 -0.227689 -0.613 150 113 81
0.0425479 -0.227689 -0.613 148 107 75
0.0436979 -0.227689 -0.613 132 102 69
0.0448478 -0.227689 -0.613 117 84 63
0.0459227 -0.227318 -0.612 96 66 58
0.0470708 -0.227318 -0.612 75 33 42
0.0482977 -0.227689 -0.613 39 1 25
0.0494476 -0.227689 -0.613 4 5 23
0.0505976 -0.227689 -0.613 20 14 20
0.0612453 -0.228803 -0.616 26 22 12
0.0625022 -0.229175 -0.617 23 23 12
0.0636596 -0.229175 -0.617 21 20 16
0.064712 -0.228803 -0.616 23 19 20
0.0659745 -0.229175 -0.617 26 19 15
0.0672408 -0.229546 -0.618 18 19 11
0.0685108 -0.229918 -0.619 11 16 15
0.069672 -0.229918 -0.619 21 13 18
0.0709476 -0.230289 -0.62 31 18 22
0.0724596 -0.231403 -0.623 32 21 26
0.0737465 -0.231775 -0.624 34 24 23
0.074797 -0.231403 -0.623 34 30 20
0.0759657 -0.231403 -0.623 34 25 14
0.0801885 -0.236975 -0.638 24 19 6
0.0811302 -0.236232 -0.636 16 17 4
0.0825821 -0.236975 -0.638 9 16 13
0.083779 -0.236975 -0.638 15 21 23
0.0847094 -0.236232 -0.636 21 21 15
0.0859025 -0.236232 -0.636 21 21 8
0.00825972 -0.234812 -0.629 90 97 80
0.00942467 -0.234439 -0.628 116 111 101
0.0105859 -0.234065 -0.627 142 114 104
0.0117621 -0.234065 -0.627 142 114 108
0.0129176 -0.233692 -0.626 143 109 108
0.014092 -0.233692 -0.626 144 109 109
0.0152419 -0.233319 -0.625 146 110 107
0.0163356 -0.232199 -0.622 146 111 105
0.0174461 -0.231452 -0.62 147 112 101
0.0186092 -0.231452 -0.62 146 117 97
0.0197404 -0.231079 -0.619 145 122 101
0.0209016 -0.231079 -0.619 144 117 106
0.0220272 -0.230705 -0.618 144 112 99
0.0231865 -0.230705 -0.618 144 114 93
0.024267 -0.229959 -0.616 144 116 95
0.0253813 -0.229586 -0.615 144 118 98
0.026535 -0.229586 -0.615 143 121 100
0.0276437 -0.229212 -0.614 144 109 103
0.0287955 -0.229212 -0.614 144 107 102
0.0299473 -0.229212 -0.614 142 106 101
0.0310992 -0.229212 -0.614 140 105 99
0.032251 -0.229212 -0.614 142 111 97
0.0334028 -0.229212 -0.614 143 118 99
0.0345546 -0.229212 -0.614 145 120 101
0.0357646 -0.229586 -0.615 147 123 99
0.0368583 -0.229212 -0.614 145 110 98
0.0380101 -0.229212 -0.614 143 110 96
0.0391619 -0.229212 -0.614 142 113 95
0.0402481 -0.228839 -0.613 140 116 84
0.041398 -0.228839 -0.613 129 107 73
0.0425479 -0.228839 -0.613 119 99 64
0.0436266 -0.228466 -0.612 91 79 56
0.0447747 -0.228466 -0.612 64 59 38
0.0459227 -0.228466 -0.612 54 30 20
0.0469939 -0.228092 -0.611 44 2 35
0.0482189 -0.228466 -0.612 29 5 50
0.0493669 -0.228466 -0.612 15 9 35
0.050515 -0.228466 -0.612 23 17 20
0.0599922 -0.229586 -0.615 27 21 18
0.0611459 -0.229586 -0.615 28 18 16
0.0624009 -0.229959 -0.616 24 18 15
0.0635565 -0.229959 -0.616 21 19 25
0.064712 -0.229959 -0.616 23 19 36
0.0659745 -0.230332 -0.617 25 19 24
0.0672408 -0.230705 -0.618 21 18 12
0.0685108 -0.231079 -0.619 17 15 18
0.069672 -0.231079 -0.619 23 16 25
0.0709476 -0.231452 -0.62 29 17 25
0.0724596 -0.232572 -0.623 29 25 26
0.0737465 -0.232945 -0.624 30 27 20
0.074797 -0.232572 -0.623 28 23 15
0.0759657 -0.232572 -0.623 27 20 9
0.078744 -0.237425 -0.636 24 18 4
0.0799371 -0.237425 -0.636 21 14 6
0.0811302 -0.237425 -0.636 17 15 8
0.0825821 -0.238172 -0.638 12 17 20
0.0835164 -0.237425 -0.636 15 20 33
0.0852422 -0.238918 -0.64 19 24 23
0.0864428 -0.238918 -0.64 22 22 14
0.0876434 -0.238918 -0.64 25 21 14
0.00825972 -0.235992 -0.629 46 54 75
0.00942467 -0.235617 -0.628 96 107 106
0.0106028 -0.235617 -0.628 146 111 105
0.0117621 -0.235241 -0.627 143 115 105
0.012897 -0.234491 -0.625 140 111 104
0.0140695 -0.234491 -0.625 141 110 104
0.0152419 -0.234491 -0.625 142 110 104
0.0163356 -0.233366 -0.622 142 111 104
0.0174461 -0.232615 -0.62 143 109 100
0.0186092 -0.232615 -0.62 142 107 96
0.0197404 -0.23224 -0.619 141 108 99
0.0209016 -0.23224 -0.619 139 110 101
0.0220272 -0.231865 -0.618 138 108 98
0.0231865 -0.231865 -0.618 138 107 95
0.0243064 -0.23149 -0.617 139 106 95
0.0253813 -0.230739 -0.615 138 106 96
0.026535 -0.230739 -0.615 137 105 98
0.0276887 -0.230739 -0.615 137 104 101
0.0287955 -0.230364 -0.614 137 104 101
0.0299961 -0.230739 -0.615 136 105 101
0.0311498 -0.230739 -0.615 135 102 101
0.032251 -0.230364 -0.614 133 99 100
0.0334028 -0.230364 -0.614 132 102 103
0.0346109 -0.230739 -0.615 137 106 105
0.0357646 -0.230739 -0.615 143 107 101
0.0368583 -0.230364 -0.614 138 108 96
0.0380101 -0.230364 -0.614 134 106 91
0.0390981 -0.229989 -0.613 131 104 87
0.0402481 -0.229989 -0.613 129 90 62
0.041398 -0.229989 -0.613 109 76 37
0.0425479 -0.229989 -0.613 90 45 37
0.0436266 -0.229614 -0.612 50 15 38
0.0447747 -0.229614 -0.612 11 10 26
0.0458477 -0.229239 -0.611 12 5 14
0.0469939 -0.229239 -0.611 13 10 29
0.0481401 -0.229239 -0.611 20 16 44
0.049125 -0.228488 -0.609 27 18 30
0.0502674 -0.228488 -0.609 26 21 17
0.0514098 -0.228488 -0.609 26 22 9
0.0525523 -0.228488 -0.609 34 17 2
0.0587428 -0.230364 -0.614 26 21 13
0.0598947 -0.230364 -0.614 28 21 10
0.0611459 -0.230739 -0.615 31 21 9
0.0622996 -0.230739 -0.615 26 21 9
0.0635565 -0.231114 -0.616 21 18 14
0.064712 -0.231114 -0.616 23 17 18
0.0659745 -0.23149 -0.617 25 17 15
0.0672408 -0.231865 -0.618 24 17 13
0.0685108 -0.23224 -0.619 24 18 17
0.069672 -0.23224 -0.619 25 19 21
0.0709476 -0.232615 -0.62 27 18 20
0.0723433 -0.233366 -0.622 27 30 19
0.0737465 -0.234116 -0.624 27 21 16
0.0749171 -0.234116 -0.624 23 17 12
0.0762096 -0.234491 -0.625 20 16 8
0.0773821 -0.234491 -0.625 19 16 4
0.0798114 -0.238243 -0.635 19 14 6
0.0810026 -0.238243 -0.635 17 12 9
0.0821938 -0.238243 -0.635 16 15 16
0.0840416 -0.240119 -0.64 16 20 23
0.0852422 -0.240119 -0.64 17 18 20
0.0864428 -0.240119 -0.64 23 17 17
0.0876434 -0.240119 -0.64 30 15 16
0.088844 -0.240119 -0.64 23 13 15
0.0106028 -0.236795 -0.628 118 96 106
0.0117808 -0.236795 -0.628 128 112 102
0.0129383 -0.236418 -0.627 139 113 101
0.0141145 -0.236418 -0.627 138 108 100
0.0152663 -0.236041 -0.626 137 107 101
0.0163619 -0.234909 -0.623 137 105 103
0.0175024 -0.234532 -0.622 138 104 99
0.0186692 -0.234532 -0.622 137 106 96
0.0197723 -0.233778 -0.62 137 109 96
0.0209354 -0.233778 -0.62 135 107 97
0.0220628 -0.233401 -0.619 134 102 97
0.0231865 -0.233024 -0.618 133 103 98
0.0243064 -0.232647 -0.617 133 112 96
0.0253813 -0.231893 -0.615 132 104 94
0.026535 -0.231893 -0.615 131 104 97
0.0276437 -0.231516 -0.614 125 103 100
0.0287955 -0.231516 -0.614 120 103 101
0.0299961 -0.231893 -0.615 116 97 102
0.0310992 -0.231516 -0.614 113 92 103
0.032251 -0.231516 -0.614 114 97 104
0.0334028 -0.231516 -0.614 116 103 107
0.0345546 -0.231516 -0.614 118 106 110
0.0357064 -0.231516 -0.614 120 110 102
0.0368583 -0.231516 -0.614 113 103 95
0.0380101 -0.231516 -0.614 107 96 87
0.0390981 -0.231139 -0.613 96 82 79
0.0402481 -0.231139 -0.613 86 69 40
0.041398 -0.231139 -0.613 71 39 1
0.0424785 -0.230762 -0.612 55 3 11
0.0436266 -0.230762 -0.612 34 16 21
0.0447747 -0.230762 -0.612 14 7 15
0.0458477 -0.230385 -0.611 17 14 9
0.0469939 -0.230385 -0.611 20 21 23
0.0479825 -0.229631 -0.609 24 24 38
0.049125 -0.229631 -0.609 28 27 26
0.0504325 -0.230385 -0.611 26 25 14
0.0514098 -0.229631 -0.609 23 23 7
0.0527249 -0.230385 -0.611 26 19 1
0.0538711 -0.230385 -0.611 28 18 14
0.0550172 -0.230385 -0.611 27 20 27
0.0561634 -0.230385 -0.611 25 19 21
0.0587428 -0.231516 -0.614 25 20 8
0.0598947 -0.231516 -0.614 26 19 2
0.0611459 -0.231893 -0.615 28 19 3
0.0622996 -0.231893 -0.615 25 21 4
0.0634533 -0.231893 -0.615 22 18 2
0.064712 -0.23227 -0.616 25 17 1
0.0659745 -0.232647 -0.617 27 17 7
0.0672408 -0.233024 -0.618 23 19 14
0.0685108 -0.233401 -0.619 19 23 15
0.069672 -0.233401 -0.619 26 21 17
0.0709476 -0.233778 -0.62 34 19 15
0.0723433 -0.234532 -0.622 30 17 13
0.0736283 -0.234909 -0.623 26 15 11
0.0749171 -0.235287 -0.624 23 14 10
0.0762096 -0.235664 -0.625 20 14 7
0.0776297 -0.236418 -0.627 19 14 4
0.0790573 -0.237172 -0.629 19 14 7
0.080875 -0.239057 -0.634 17 14 10
0.0820644 -0.239057 -0.634 16 14 12
0.083385 -0.239434 -0.635 17 17 14
0.0845763 -0.239434 -0.635 18 20 17
0.0864428 -0.241319 -0.64 21 18 20
0.0876434 -0.241319 -0.64 25 14 17
0.088844 -0.241319 -0.64 21 13 15
0.0106028 -0.237973 -0.628 91 70 83
0.0117808 -0.237973 -0.628 114 109 110
0.0129383 -0.237594 -0.627 138 107 104
0.0141145 -0.237594 -0.627 135 106 99
0.0152663 -0.237215 -0.626 133 104 100
0.0163619 -0.236078 -0.623 133 102 101
0.0175024 -0.235699 -0.622 133 101 100
0.0186692 -0.235699 -0.622 133 101 99
0.0198361 -0.235699 -0.622 134 102 98
0.0209354 -0.234941 -0.62 132 104 97
0.0220628 -0.234562 -0.619 130 103 99
0.023224 -0.234562 -0.619 129 99 101
0.0243458 -0.234183 -0.618 128 101 103
0.0254226 -0.233426 -0.616 126 103 105
0.026535 -0.233047 -0.615 125 96 102
0.0276887 -0.233047 -0.615 114 90 100
0.0288424 -0.233047 -0.615 103 83 90
0.0299961 -0.233047 -0.615 97 76 80
0.0311498 -0.233047 -0.615 92 68 67
0.032251 -0.232668 -0.614 96 61 55
0.0334028 -0.232668 -0.614 100 75 60
0.0345546 -0.232668 -0.614 98 89 65
0.0357064 -0.232668 -0.614 97 85 62
0.0368583 -0.232668 -0.614 88 82 60
0.0380101 -0.232668 -0.614 80 61 53
0.0390981 -0.232289 -0.613 62 10 47
0.0402481 -0.232289 -0.613 44 10 31
0.0412629 -0.231531 -0.611 32 10 16
0.0424091 -0.231531 -0.611 21 13 23
0.0435553 -0.231531 -0.611 19 17 30
0.0447015 -0.231531 -0.611 17 22 28
0.0458477 -0.231531 -0.611 22 28 27
0.0469939 -0.231531 -0.611 28 21 29
0.0481401 -0.231531 -0.611 29 25 32
0.0492863 -0.231531 -0.611 30 28 21
0.0504325 -0.231531 -0.611 25 30 10
0.0515787 -0.231531 -0.611 21 21 7
0.0527249 -0.231531 -0.611 18 21 5
0.0538711 -0.231531 -0.611 15 21 13
0.0550172 -0.231531 -0.611 18 22 22
0.0561634 -0.231531 -0.611 21 20 18
0.0573096 -0.231531 -0.611 22 19 14
0.0586472 -0.232289 -0.613 24 19 11
0.0597971 -0.232289 -0.613 24 19 7
0.0610465 -0.232668 -0.614 25 19 9
0.0622996 -0.233047 -0.615 24 21 12
0.0634533 -0.233047 -0.615 24 18 7
0.0648171 -0.233805 -0.617 27 15 3
0.0659745 -0.233805 -0.617 30 19 7
0.0672408 -0.234183 -0.618 22 21 12
0.0685108 -0.234562 -0.619 14 21 11
0.069672 -0.234562 -0.619 28 25 10
0.0709476 -0.234941 -0.62 42 15 11
0.0723433 -0.235699 -0.622 34 12 12
0.0736283 -0.236078 -0.623 26 12 12
0.0750372 -0.236836 -0.625 23 12 12
0.0763315 -0.237215 -0.626 20 13 15
0.0776297 -0.237594 -0.627 19 12 18
0.0790573 -0.238352 -0.629 19 13 13
0.0804924 -0.23911 -0.631 17 15 9
0.0818055 -0.239489 -0.632 16 14 11
0.0831224 -0.239868 -0.633 17 15 14
0.0844431 -0.240246 -0.634 19 17 22
0.0864428 -0.24252 -0.64 20 20 30
0.0876434 -0.24252 -0.64 21 15 24
0.088844 -0.24252 -0.64 18 13 17
0.0106028 -0.239151 -0.628 52 45 59
0.0117808 -0.239151 -0.628 81 71 118
0.0129383 -0.23877 -0.627 110 98 108
0.0141145 -0.23877 -0.627 122 100 99
0.0152663 -0.238389 -0.626 133 103 99
0.0163619 -0.237247 -0.623 131 102 100
0.0175306 -0.237247 -0.623 129 98 101
0.0186692 -0.236866 -0.622 128 102 103
0.0198361 -0.236866 -0.622 128 95 100
0.0210029 -0.236866 -0.622 121 99 98
0.0220984 -0.236104 -0.62 114 104 101
0.023224 -0.235724 -0.619 116 100 105
0.0243852 -0.235724 -0.619 118 97 110
0.0254226 -0.234581 -0.616 116 89 116
0.026535 -0.2342 -0.615 115 81 108
0.0276887 -0.2342 -0.615 86 62 100
0.0288424 -0.2342 -0.615 58 43 79
0.0299961 -0.2342 -0.615 56 46 59
0.0310992 -0.23382 -0.614 55 50 32
0.032251 -0.23382 -0.614 54 50 6
0.0334028 -0.23382 -0.614 54 51 13
0.0345546 -0.23382 -0.614 55 57 20
0.0357064 -0.23382 -0.614 57 64 23
0.0368583 -0.23382 -0.614 60 45 26
0.0379482 -0.233439 -0.613 64 26 20
0.0390981 -0.233439 -0.613 54 19 15
0.0402481 -0.233439 -0.613 45 12 23
0.0412629 -0.232677 -0.611 37 14 32
0.0424091 -0.232677 -0.611 30 17 35
0.0435553 -0.232677 -0.611 30 19 39
0.0447015 -0.232677 -0.611 29 25 42
0.0458477 -0.232677 -0.611 29 23 46
0.0469939 -0.232677 -0.611 29 22 36
0.0479825 -0.231915 -0.609 30 24 26
0.049125 -0.231915 -0.609 30 29 16
0.0502674 -0.231915 -0.609 28 24 6
0.0514098 -0.231915 -0.609 25 20 8
0.0525523 -0.231915 -0.609 23 19 10
0.0536947 -0.231915 -0.609 20 25 13
0.0550172 -0.232677 -0.611 22 20 17
0.0561634 -0.232677 -0.611 23 21 15
0.0573096 -0.232677 -0.611 25 18 14
0.0585515 -0.233058 -0.612 27 18 13
0.0596996 -0.233058 -0.612 29 18 13
0.0608476 -0.233058 -0.612 32 19 16
0.0621983 -0.23382 -0.614 26 18 20
0.0634533 -0.2342 -0.615 21 18 12
0.064607 -0.2342 -0.615 24 19 5
0.0659745 -0.234962 -0.617 28 21 7
0.0672408 -0.235343 -0.618 24 21 10
0.0685108 -0.235724 -0.619 20 20 7
0.0697846 -0.236104 -0.62 27 16 4
0.0709476 -0.236104 -0.62 34 12 8
0.0723433 -0.236866 -0.622 24 11 12
0.0735101 -0.236866 -0.622 14 5 13
0.074797 -0.237247 -0.623 14 10 14
0.0760877 -0.237628 -0.624 15 14 23
0.0775059 -0.238389 -0.626 17 12 32
0.0788059 -0.23877 -0.627 20 12 20
0.0801097 -0.239151 -0.628 19 14 9
0.0816761 -0.240293 -0.631 18 14 11
0.0829911 -0.240674 -0.632 18 13 14
0.0841767 -0.240674 -0.632 19 12 27
0.0853623 -0.240674 -0.632 19 14 41
0.0866848 -0.241055 -0.633 19 16 30
0.0878723 -0.241055 -0.633 18 11 20
0.0117808 -0.240329 -0.628 48 41 59
0.0129589 -0.240329 -0.628 83 69 86
0.014137 -0.240329 -0.628 108 98 112
0.0152907 -0.239946 -0.627 134 100 103
0.0163619 -0.238416 -0.623 129 102 94
0.0175306 -0.238416 -0.623 125 102 90
0.0186692 -0.238033 -0.622 124 103 87
0.0198361 -0.238033 -0.622 123 92 86
0.0210029 -0.238033 -0.622 110 87 86
0.0220984 -0.237267 -0.62 98 85 85
0.0232615 -0.237267 -0.62 103 83 83
0.0243852 -0.236885 -0.619 108 83 77
0.0254226 -0.235737 -0.616 106 83 71
0.026535 -0.235354 -0.615 105 76 70
0.0276887 -0.235354 -0.615 59 13 69
0.0288424 -0.235354 -0.615 13 7 54
0.0299961 -0.235354 -0.615 15 2 39
0.0310992 -0.234971 -0.614 18 2 26
0.0321984 -0.234589 -0.613 13 2 12
0.0333484 -0.234589 -0.613 9 5 19
0.0344983 -0.234589 -0.613 13 9 27
0.0356483 -0.234589 -0.613 17 11 30
0.0367982 -0.234589 -0.613 33 13 34
0.0378863 -0.234206 -0.612 49 26 29
0.0390343 -0.234206 -0.612 47 34 24
0.0401824 -0.234206 -0.612 46 29 27
0.0412629 -0.233823 -0.611 43 24 31
0.0424091 -0.233823 -0.611 40 23 34
0.0435553 -0.233823 -0.611 41 22 36
0.0447015 -0.233823 -0.611 42 20 37
0.0458477 -0.233823 -0.611 36 19 39
0.0469939 -0.233823 -0.611 31 20 32
0.0479825 -0.233058 -0.609 31 24 26
0.049125 -0.233058 -0.609 31 27 15
0.0504325 -0.233823 -0.611 30 14 4
0.0515787 -0.233823 -0.611 30 15 8
0.0527249 -0.233823 -0.611 28 17 11
0.0538711 -0.233823 -0.611 26 18 15
0.0550172 -0.233823 -0.611 26 19 19
0.0561634 -0.233823 -0.611 26 18 16
0.0574034 -0.234206 -0.612 28 17 14
0.0585515 -0.234206 -0.612 30 16 13
0.0596996 -0.234206 -0.612 35 16 12
0.0610465 -0.234971 -0.614 40 17 21
0.0622996 -0.235354 -0.615 29 19 30
0.0634533 -0.235354 -0.615 18 20 19
0.0648171 -0.236119 -0.617 22 22 8
0.0660815 -0.236502 -0.618 27 21 7
0.0672408 -0.236502 -0.618 26 22 7
0.0685108 -0.236885 -0.619 26 18 4
0.0697846 -0.237267 -0.62 26 15 2
0.0711765 -0.238033 -0.622 26 11 8
0.0723433 -0.238033 -0.622 14 10 15
0.0736283 -0.238416 -0.623 3 9 15
0.074797 -0.238416 -0.623 6 9 16
0.0759657 -0.238416 -0.623 10 13 19
0.0773821 -0.239181 -0.625 15 12 23
0.0788059 -0.239946 -0.627 21 13 16
0.0801097 -0.240329 -0.628 20 14 9
0.0814172 -0.240712 -0.629 20 14 10
0.0828598 -0.241477 -0.631 20 12 11
0.0841767 -0.24186 -0.632 20 13 21
0.0854973 -0.242242 -0.633 19 14 31
0.0866848 -0.242242 -0.633 18 15 25
0.0878723 -0.242242 -0.633 17 10 20
0.0129589 -0.241507 -0.628 42 18 63
0.0141595 -0.241892 -0.629 70 57 126
0.0152907 -0.241123 -0.627 99 96 107
0.0164406 -0.240738 -0.626 104 95 88
0.0175587 -0.239969 -0.624 110 95 79
0.0186993 -0.239584 -0.623 112 92 71
0.019868 -0.239584 -0.623 113 90 73
0.0210029 -0.2392 -0.622 133 72 75
0.0220984 -0.238431 -0.62 153 55 68
0.023224 -0.238046 -0.619 146 73 62
0.0243458 -0.237661 -0.618 138 91 44
0.0254226 -0.236892 -0.616 98 81 26
0.026535 -0.236508 -0.615 57 72 32
0.0276887 -0.236508 -0.615 36 8 39
0.0288424 -0.236508 -0.615 15 6 29
0.0298986 -0.235739 -0.613 19 9 20
0.0310485 -0.235739 -0.613 24 12 19
0.0321984 -0.235739 -0.613 19 11 19
0.033294 -0.235354 -0.612 15 11 26
0.0344983 -0.235739 -0.613 19 15 34
0.0355901 -0.235354 -0.612 24 20 38
0.0367382 -0.235354 -0.612 33 23 43
0.0378244 -0.234969 -0.611 43 26 38
0.0389705 -0.234969 -0.611 42 26 33
0.0401167 -0.234969 -0.611 41 27 32
0.0412629 -0.234969 -0.611 38 29 31
0.0424091 -0.234969 -0.611 36 31 32
0.0435553 -0.234969 -0.611 37 25 34
0.0447015 -0.234969 -0.611 37 19 33
0.0458477 -0.234969 -0.611 33 19 32
0.0469939 -0.234969 -0.611 29 19 29
0.0479825 -0.2342 -0.609 30 25 26
0.049125 -0.2342 -0.609 32 25 14
0.0504325 -0.234969 -0.611 36 18 3
0.0515787 -0.234969 -0.611 40 16 8
0.0525523 -0.2342 -0.609 33 16 13
0.0538711 -0.234969 -0.611 27 16 17
0.0550172 -0.234969 -0.611 30 19 21
0.0561634 -0.234969 -0.611 33 18 17
0.0574034 -0.235354 -0.612 30 17 14
0.0585515 -0.235354 -0.612 28 20 12
0.0596996 -0.235354 -0.612 31 21 11
0.0609471 -0.235739 -0.613 34 23 26
0.0621983 -0.236123 -0.614 26 23 41
0.0633501 -0.236123 -0.614 19 23 26
0.064712 -0.236892 -0.616 25 21 12
0.0660815 -0.237661 -0.618 32 21 8
0.0672408 -0.237661 -0.618 26 19 4
0.0685108 -0.238046 -0.619 21 17 2
0.0697846 -0.238431 -0.62 20 12 1
0.0711765 -0.2392 -0.622 19 10 9
0.0723433 -0.2392 -0.622 12 10 18
0.0736283 -0.239584 -0.623 6 10 18
0.074677 -0.2392 -0.622 9 11 19
0.0759657 -0.239584 -0.623 11 12 16
0.0773821 -0.240353 -0.625 14 13 14
0.0786802 -0.240738 -0.626 17 14 11
0.0801097 -0.241507 -0.628 16 14 9
0.0816761 -0.242661 -0.631 16 14 8
0.0829911 -0.243045 -0.632 17 14 8
0.0843099 -0.24343 -0.633 19 14 14
0.0854973 -0.24343 -0.633 20 14 21
0.0866848 -0.24343 -0.633 20 14 20
0.0878723 -0.24343 -0.633 23 12 20
0.0141595 -0.243072 -0.629 32 3 63
0.0152907 -0.242299 -0.627 64 35 73
0.0164406 -0.241912 -0.626 80 67 83
0.0175587 -0.241139 -0.624 96 88 116
0.0186993 -0.240753 -0.623 100 4 150
0.0198361 -0.240367 -0.622 104 165 142
0.0210029 -0.240367 -0.622 156 206 134
0.0220984 -0.239594 -0.62 209 178 124
0.023224 -0.239207 -0.619 189 150 115
0.0243458 -0.238821 -0.618 169 131 64
0.0254639 -0.238434 -0.617 89 113 13
0.026535 -0.237661 -0.615 10 36 29
0.0276887 -0.237661 -0.615 13 4 44
0.0284203 -0.234183 -0.606 17 12 31
0.0295571 -0.234183 -0.606 24 20 17
0.0308459 -0.235343 -0.609 31 19 20
0.0319883 -0.235343 -0.609 26 19 22
0.0331308 -0.235343 -0.609 21 11 26
0.0344421 -0.236502 -0.612 26 26 29
0.035532 -0.236116 -0.611 31 20 32
0.0367382 -0.236502 -0.612 34 30 35
0.0378244 -0.236116 -0.611 38 28 29
0.0389705 -0.236116 -0.611 37 30 23
0.0401167 -0.236116 -0.611 36 27 24
0.0412629 -0.236116 -0.611 34 29 26
0.0424091 -0.236116 -0.611 33 29 26
0.0434127 -0.235343 -0.609 33 29 27
0.0447015 -0.236116 -0.611 33 26 32
0.0458477 -0.236116 -0.611 30 23 37
0.0469939 -0.236116 -0.611 27 24 34
0.0481401 -0.236116 -0.611 30 26 32
0.0492863 -0.236116 -0.611 34 26 23
0.0504325 -0.236116 -0.611 42 22 14
0.0515787 -0.236116 -0.611 50 20 15
0.0527249 -0.236116 -0.611 39 19 16
0.0538711 -0.236116 -0.611 28 19 24
0.0550172 -0.236116 -0.611 34 19 32
0.0562554 -0.236502 -0.612 41 18 24
0.0574034 -0.236502 -0.612 33 17 17
0.0585515 -0.236502 -0.612 26 19 15
0.059602 -0.236116 -0.611 27 21 12
0.0608476 -0.236502 -0.612 28 21 18
0.0621983 -0.237275 -0.614 24 21 25
0.0633501 -0.237275 -0.614 21 21 18
0.064712 -0.238048 -0.616 29 20 11
0.0660815 -0.238821 -0.618 37 17 7
0.0672408 -0.238821 -0.618 27 15 4
0.0685108 -0.239207 -0.619 17 14 4
0.0697846 -0.239594 -0.62 14 8 5
0.0709476 -0.239594 -0.62 12 9 15
0.0723433 -0.240367 -0.622 11 10 26
0.0736283 -0.240753 -0.623 10 10 21
0.074677 -0.240367 -0.622 11 12 16
0.0758438 -0.240367 -0.622 13 11 13
0.0772583 -0.241139 -0.624 13 9 10
0.0786802 -0.241912 -0.626 14 9 8
0.0801097 -0.242685 -0.628 13 10 7
0.0816761 -0.243844 -0.631 12 14 7
0.0828598 -0.243844 -0.631 15 13 7
0.0841767 -0.244231 -0.632 19 13 12
0.0854973 -0.244617 -0.633 21 14 16
0.0866848 -0.244617 -0.633 23 14 18
0.0878723 -0.244617 -0.633 29 15 21
0.0141595 -0.244252 -0.629 64 15 1
0.0152907 -0.243475 -0.627 90 29 39
0.0164406 -0.243087 -0.626 115 55 78
0.0175868 -0.242698 -0.625 141 82 154
0.0186993 -0.241922 -0.623 147 161 230
0.0198361 -0.241533 -0.622 153 241 211
0.0209354 -0.240757 -0.62 129 197 193
0.0220628 -0.240368 -0.619 105 153 180
0.0231865 -0.23998 -0.618 110 164 168
0.0243458 -0.23998 -0.618 116 175 84
0.0253813 -0.238815 -0.615 67 65 1
0.026535 -0.238815 -0.615 18 1 25
0.0272835 -0.23532 -0.606 27 18 50
0.0284203 -0.23532 -0.606 37 35 32
0.0295571 -0.23532 -0.606 35 38 15
0.030694 -0.23532 -0.606 34 42 20
0.0318833 -0.235709 -0.607 23 21 26
0.033022 -0.235709 -0.607 13 11 25
0.0343858 -0.237262 -0.611 18 16 25
0.035532 -0.237262 -0.611 24 21 26
0.0366782 -0.237262 -0.611 28 23 27
0.0378244 -0.237262 -0.611 32 26 20
0.0389705 -0.237262 -0.611 32 26 14
0.0401167 -0.237262 -0.611 31 27 17
0.0412629 -0.237262 -0.611 30 26 21
0.0424091 -0.237262 -0.611 29 26 21
0.0434127 -0.236485 -0.609 33 29 21
0.0447015 -0.237262 -0.611 37 29 31
0.0458477 -0.237262 -0.611 37 26 42
0.0469939 -0.237262 -0.611 38 26 40
0.0481401 -0.237262 -0.611 36 26 39
0.0492863 -0.237262 -0.611 34 27 32
0.0504325 -0.237262 -0.611 37 27 25
0.0515787 -0.237262 -0.611 41 27 22
0.0527249 -0.237262 -0.611 33 24 19
0.0538711 -0.237262 -0.611 25 21 31
0.0551073 -0.23765 -0.612 29 17 43
