ply
format ascii 1.0
element vertex 1331
property float x
property float y
property float z
property uchar red
property uchar green
property uchar blue
end_header
-0.0579568 -0.186402 -0.835 17 10 26
-0.0563904 -0.186402 -0.835 17 10 35
-0.0549553 -0.186848 -0.837 18 7 24
-0.0533852 -0.186848 -0.837 17 12 13
-0.051815 -0.186848 -0.837 17 14 7
-0.0503649 -0.187295 -0.839 20 12 1
-0.048791 -0.187295 -0.839 23 10 14
-0.0472171 -0.187295 -0.839 20 10 27
-0.045752 -0.187741 -0.841 18 10 18
-0.0442794 -0.188188 -0.843 16 13 9
-0.0429513 -0.189304 -0.848 15 14 5
-0.041458 -0.18975 -0.85 17 12 1
-0.0399573 -0.190197 -0.852 19 10 10
-0.038449 -0.190643 -0.854 23 10 20
-0.0369333 -0.19109 -0.856 27 15 20
-0.03541 -0.191536 -0.858 26 16 20
-0.0338793 -0.191983 -0.86 26 17 20
-0.0324536 -0.193099 -0.865 26 16 20
-0.0309022 -0.193545 -0.867 27 19 19
-0.0293433 -0.193992 -0.869 26 23 19
-0.0278407 -0.194885 -0.873 25 25 35
-0.026203 -0.194885 -0.873 23 23 51
-0.0245653 -0.194885 -0.873 21 4 27
-0.0229276 -0.194885 -0.873 36 3 4
-0.112 -0.197648 -0.878 20 21 15
-0.109976 -0.196973 -0.875 23 19 15
-0.108335 -0.196973 -0.875 26 14 15
-0.10645 -0.196522 -0.873 30 9 15
-0.104332 -0.195622 -0.869 23 9 16
-0.102465 -0.195172 -0.867 17 10 10
-0.0997919 -0.193146 -0.858 17 12 5
-0.0977246 -0.192245 -0.854 17 11 7
-0.0958975 -0.191795 -0.852 16 10 9
-0.0940778 -0.191345 -0.85 15 10 10
-0.0922657 -0.190895 -0.848 16 12 11
-0.0903541 -0.190219 -0.845 17 12 11
-0.088769 -0.190219 -0.845 14 12 11
-0.0867711 -0.189319 -0.841 11 12 8
-0.0851934 -0.189319 -0.841 10 13 6
-0.0834169 -0.188869 -0.839 9 13 13
-0.081843 -0.188869 -0.839 11 15 20
-0.0802691 -0.188869 -0.839 13 10 14
-0.0785076 -0.188418 -0.837 13 11 8
-0.0769375 -0.188418 -0.837 14 10 5
-0.0753673 -0.188418 -0.837 12 10 2
-0.0737972 -0.188418 -0.837 11 11 6
-0.0720544 -0.187968 -0.835 11 12 9
-0.0706569 -0.188418 -0.837 12 11 13
-0.0689216 -0.187968 -0.835 11 9 17
-0.0673552 -0.187968 -0.835 10 9 11
-0.0657888 -0.187968 -0.835 10 11 5
-0.0642224 -0.187968 -0.835 10 12 7
-0.0628061 -0.188418 -0.837 10 16 9
-0.0612359 -0.188418 -0.837 11 11 11
-0.0595232 -0.187968 -0.835 14 10 12
-0.0579568 -0.187968 -0.835 17 10 15
-0.0563904 -0.187968 -0.835 18 11 18
-0.0549553 -0.188418 -0.837 20 11 13
-0.0533852 -0.188418 -0.837 17 12 9
-0.051815 -0.188418 -0.837 14 10 6
-0.0502449 -0.188418 -0.837 20 7 3
-0.048791 -0.188869 -0.839 27 8 11
-0.0473297 -0.189319 -0.841 22 9 20
-0.045752 -0.189319 -0.841 17 10 14
-0.0442794 -0.189769 -0.843 14 12 9
-0.0429513 -0.190895 -0.848 11 13 8
-0.041458 -0.191345 -0.85 15 9 7
-0.0399573 -0.191795 -0.852 19 8 13
-0.038449 -0.192245 -0.854 24 8 19
-0.0369333 -0.192695 -0.856 30 14 20
-0.03541 -0.193146 -0.858 28 13 21
-0.0338793 -0.193596 -0.86 26 16 17
-0.0324536 -0.194721 -0.865 26 17 14
-0.0309022 -0.195172 -0.867 26 20 15
-0.0293433 -0.195622 -0.869 28 21 17
-0.0278407 -0.196522 -0.873 30 24 30
-0.026203 -0.196522 -0.873 34 25 43
-0.0245653 -0.196522 -0.873 39 15 23
-0.0229276 -0.196522 -0.873 20 5 4
-0.112 -0.199295 -0.878 17 18 12
-0.109976 -0.198614 -0.875 22 20 12
-0.108335 -0.198614 -0.875 24 13 13
-0.10645 -0.19816 -0.873 27 8 13
-0.104332 -0.197252 -0.869 22 10 14
-0.102465 -0.196798 -0.867 17 14 11
-0.0997919 -0.194755 -0.858 17 13 9
-0.0979535 -0.194301 -0.856 17 13 9
-0.0958975 -0.193393 -0.852 14 12 9
-0.0940778 -0.192939 -0.85 12 11 11
-0.0922657 -0.192485 -0.848 14 12 14
-0.0906749 -0.192485 -0.848 17 12 8
-0.088769 -0.191804 -0.845 14 11 3
-0.0867711 -0.190896 -0.841 11 11 2
-0.0851934 -0.190896 -0.841 10 12 2
-0.0836158 -0.190896 -0.841 10 12 7
-0.081843 -0.190442 -0.839 11 11 12
-0.0802691 -0.190442 -0.839 13 10 8
-0.0786952 -0.190442 -0.839 13 10 5
-0.0771213 -0.190442 -0.839 13 10 3
-0.0755474 -0.190442 -0.839 13 10 1
-0.0737972 -0.189988 -0.837 12 12 3
-0.0720544 -0.189534 -0.835 12 11 6
-0.0706569 -0.189988 -0.837 12 10 7
-0.0690867 -0.189988 -0.837 12 10 8
-0.0675166 -0.189988 -0.837 11 10 6
-0.0657888 -0.189534 -0.835 10 10 5
-0.0642224 -0.189534 -0.835 9 11 6
-0.0628061 -0.189988 -0.837 11 12 7
-0.0612359 -0.189988 -0.837 14 14 7
-0.0595232 -0.189534 -0.835 15 12 7
-0.0579568 -0.189534 -0.835 16 12 4
-0.0563904 -0.189534 -0.835 18 10 1
-0.0549553 -0.189988 -0.837 20 9 3
-0.0533852 -0.189988 -0.837 16 9 6
-0.051815 -0.189988 -0.837 11 9 5
-0.0503649 -0.190442 -0.839 17 7 5
-0.048791 -0.190442 -0.839 22 4 9
-0.0473297 -0.190896 -0.841 19 8 13
-0.045752 -0.190896 -0.841 17 11 11
-0.0443845 -0.191804 -0.845 19 11 10
-0.0429513 -0.192485 -0.848 21 13 12
-0.041458 -0.192939 -0.85 20 11 14
-0.0399573 -0.193393 -0.852 19 13 16
-0.038449 -0.193847 -0.854 23 13 18
-0.0369333 -0.194301 -0.856 26 14 20
-0.03541 -0.194755 -0.858 24 13 23
-0.0338793 -0.195209 -0.86 23 15 15
-0.0324536 -0.196344 -0.865 21 20 8
-0.0309022 -0.196798 -0.867 19 22 11
-0.0293433 -0.197252 -0.869 23 22 15
-0.0279044 -0.198614 -0.875 28 23 25
-0.026263 -0.198614 -0.875 33 24 35
-0.0246216 -0.198614 -0.875 39 30 19
-0.0229801 -0.198614 -0.875 20 4 4
-0.112256 -0.2014 -0.88 15 16 14
-0.109976 -0.200255 -0.875 21 14 17
-0.108335 -0.200255 -0.875 23 13 20
-0.10645 -0.199798 -0.873 25 12 15
-0.104332 -0.198882 -0.869 21 12 11
-0.102465 -0.198425 -0.867 17 13 8
-0.100606 -0.197967 -0.865 17 14 6
-0.0979535 -0.195907 -0.856 17 13 5
-0.0961226 -0.195449 -0.854 13 13 5
-0.0942992 -0.194992 -0.852 10 13 13
-0.0924833 -0.194534 -0.85 13 13 20
-0.0906749 -0.194076 -0.848 17 12 13
-0.088769 -0.19339 -0.845 14 10 7
-0.0869774 -0.192932 -0.843 11 11 9
-0.0851934 -0.192474 -0.841 11 12 11
-0.0836158 -0.192474 -0.841 12 11 12
-0.081843 -0.192016 -0.839 12 9 14
-0.0802691 -0.192016 -0.839 13 8 14
-0.0786952 -0.192016 -0.839 13 8 15
-0.0771213 -0.192016 -0.839 13 9 9
-0.0755474 -0.192016 -0.839 13 10 3
-0.0737972 -0.191559 -0.837 14 10 4
-0.072227 -0.191559 -0.837 13 10 5
-0.0706569 -0.191559 -0.837 13 10 5
-0.0690867 -0.191559 -0.837 13 11 4
-0.0675166 -0.191559 -0.837 13 12 4
-0.0659464 -0.191559 -0.837 11 14 3
-0.0643763 -0.191559 -0.837 9 13 4
-0.0628061 -0.191559 -0.837 13 12 5
-0.0612359 -0.191559 -0.837 17 12 5
-0.0595232 -0.191101 -0.835 16 12 6
-0.0579568 -0.191101 -0.835 15 11 6
-0.0563904 -0.191101 -0.835 18 6 6
-0.0549553 -0.191559 -0.837 21 9 6
-0.0533852 -0.191559 -0.837 15 11 6
-0.051815 -0.191559 -0.837 9 10 5
-0.0503649 -0.192016 -0.839 13 7 3
-0.048791 -0.192016 -0.839 18 7 6
-0.0474422 -0.192932 -0.843 17 8 9
-0.0458608 -0.192932 -0.843 17 11 9
-0.0443845 -0.19339 -0.845 24 10 9
-0.0430526 -0.194534 -0.85 32 11 16
-0.041458 -0.194534 -0.85 26 9 24
-0.0399573 -0.194992 -0.852 20 11 20
-0.038449 -0.195449 -0.854 21 12 17
-0.0369333 -0.195907 -0.856 23 12 24
-0.03541 -0.196365 -0.858 21 13 31
-0.0338793 -0.196822 -0.86 20 16 22
-0.0324536 -0.197967 -0.865 16 23 14
-0.0308309 -0.197967 -0.865 12 22 15
-0.0292757 -0.198425 -0.867 19 22 17
-0.0278407 -0.199798 -0.873 26 22 24
-0.026203 -0.199798 -0.873 32 23 32
-0.0246216 -0.200255 -0.875 39 28 20
-0.0229801 -0.200255 -0.875 20 4 9
-0.0213387 -0.200255 -0.875 1 1 81
-0.112 -0.202589 -0.878 15 8 16
-0.110353 -0.202589 -0.878 20 8 21
-0.108335 -0.201897 -0.875 24 9 27
-0.10645 -0.201435 -0.873 29 10 18
-0.104332 -0.200512 -0.869 24 10 9
-0.102465 -0.200051 -0.867 19 10 6
-0.100606 -0.199589 -0.865 17 13 3
-0.0981824 -0.197974 -0.858 15 17 2
-0.0961226 -0.197051 -0.854 11 14 2
-0.0942992 -0.19659 -0.852 8 10 14
-0.0924833 -0.196128 -0.85 11 12 27
-0.0906749 -0.195667 -0.848 14 12 19
-0.088769 -0.194975 -0.845 14 12 11
-0.0869774 -0.194513 -0.843 14 13 16
-0.085396 -0.194513 -0.843 16 12 21
-0.0836158 -0.194052 -0.841 19 10 18
-0.0820381 -0.194052 -0.841 17 8 16
-0.0802691 -0.19359 -0.839 16 7 20
-0.0786952 -0.19359 -0.839 16 7 25
-0.0771213 -0.19359 -0.839 16 8 15
-0.0755474 -0.19359 -0.839 18 9 6
-0.0737972 -0.193129 -0.837 21 10 5
-0.072227 -0.193129 -0.837 17 8 5
-0.0706569 -0.193129 -0.837 13 5 3
-0.0690867 -0.193129 -0.837 12 10 1
-0.0675166 -0.193129 -0.837 12 14 1
-0.0659464 -0.193129 -0.837 11 14 2
-0.0643763 -0.193129 -0.837 11 18 3
-0.0628061 -0.193129 -0.837 16 12 4
-0.0612359 -0.193129 -0.837 22 10 4
-0.0595232 -0.192667 -0.835 17 10 5
-0.0579568 -0.192667 -0.835 12 10 8
-0.0563904 -0.192667 -0.835 15 10 11
-0.0549553 -0.193129 -0.837 18 10 9
-0.0533852 -0.193129 -0.837 14 11 7
-0.0519388 -0.19359 -0.839 11 13 4
-0.0503649 -0.19359 -0.839 13 12 2
-0.0489073 -0.194052 -0.841 15 12 4
-0.0474422 -0.194513 -0.843 13 12 6
-0.0458608 -0.194513 -0.843 12 12 7
-0.0443845 -0.194975 -0.845 18 12 9
-0.0429513 -0.195667 -0.848 25 12 21
-0.041458 -0.196128 -0.85 21 10 34
-0.0399573 -0.19659 -0.852 18 10 25
-0.038449 -0.197051 -0.854 20 10 17
-0.0369333 -0.197513 -0.856 23 10 28
-0.03541 -0.197974 -0.858 21 12 40
-0.0338793 -0.198436 -0.86 19 17 30
-0.032266 -0.198436 -0.86 17 19 20
-0.0308309 -0.199589 -0.865 16 21 19
-0.0292757 -0.200051 -0.867 20 20 19
-0.0276493 -0.200051 -0.867 23 20 24
-0.026203 -0.201435 -0.873 30 23 29
-0.0246216 -0.201897 -0.875 36 26 21
-0.0229801 -0.201897 -0.875 19 9 14
-0.0213387 -0.201897 -0.875 1 1 69
-0.114041 -0.207958 -0.894 16 14 11
-0.111485 -0.20633 -0.887 19 10 16
-0.109821 -0.20633 -0.887 26 7 21
-0.106693 -0.203538 -0.875 34 10 15
-0.104572 -0.202608 -0.871 27 9 9
-0.102465 -0.201677 -0.867 21 11 5
-0.100606 -0.201212 -0.865 17 12 2
-0.0981824 -0.199584 -0.858 13 14 1
-0.0963477 -0.199119 -0.856 10 16 1
-0.0942992 -0.198188 -0.852 7 11 11
-0.0924833 -0.197723 -0.85 9 12 20
-0.0906749 -0.197258 -0.848 12 12 14
-0.088769 -0.19656 -0.845 14 12 8
-0.0871838 -0.19656 -0.845 17 12 9
-0.085396 -0.196095 -0.843 21 13 11
-0.0838146 -0.196095 -0.843 26 9 10
-0.0820381 -0.195629 -0.841 22 7 10
-0.0802691 -0.195164 -0.839 19 6 12
-0.0786952 -0.195164 -0.839 19 5 14
-0.0771213 -0.195164 -0.839 19 6 9
-0.0755474 -0.195164 -0.839 24 8 4
-0.0739735 -0.195164 -0.839 29 7 5
-0.072227 -0.194699 -0.837 21 7 7
-0.0706569 -0.194699 -0.837 14 8 5
-0.0690867 -0.194699 -0.837 12 9 3
-0.0675166 -0.194699 -0.837 11 13 3
-0.0659464 -0.194699 -0.837 12 14 3
-0.0643763 -0.194699 -0.837 13 13 3
-0.0628061 -0.194699 -0.837 20 12 3
-0.0612359 -0.194699 -0.837 28 8 3
-0.0595232 -0.194234 -0.835 18 7 3
-0.0579568 -0.194234 -0.835 9 10 7
-0.0563904 -0.194234 -0.835 12 10 12
-0.0549553 -0.194699 -0.837 16 12 11
-0.0533852 -0.194699 -0.837 14 17 11
-0.0519388 -0.195164 -0.839 13 14 7
-0.0503649 -0.195164 -0.839 12 12 4
-0.0489073 -0.195629 -0.841 12 13 4
-0.0474422 -0.196095 -0.843 9 15 4
-0.0458608 -0.196095 -0.843 7 15 4
-0.0443845 -0.19656 -0.845 12 16 5
-0.0429513 -0.197258 -0.848 18 13 12
-0.0413605 -0.197258 -0.848 17 11 20
-0.0399573 -0.198188 -0.852 17 10 14
-0.038449 -0.198653 -0.854 20 9 9
-0.0369333 -0.199119 -0.856 23 10 18
-0.03541 -0.199584 -0.858 20 12 27
-0.0338793 -0.200049 -0.86 18 17 21
-0.0324536 -0.201212 -0.865 19 14 16
-0.0309022 -0.201677 -0.867 21 14 17
-0.0293433 -0.202143 -0.869 21 14 18
-0.0278407 -0.203073 -0.873 21 20 23
-0.0263531 -0.204236 -0.878 27 23 28
-0.024706 -0.204236 -0.878 34 26 28
-0.0230589 -0.204236 -0.878 18 15 29
-0.0214119 -0.204236 -0.878 2 4 49
-0.114041 -0.209635 -0.894 16 15 7
-0.112364 -0.209635 -0.894 18 17 11
-0.110068 -0.208463 -0.889 22 14 16
-0.108401 -0.208463 -0.889 26 11 12
-0.106133 -0.20729 -0.884 22 12 9
-0.102229 -0.202835 -0.865 19 13 5
-0.100606 -0.202835 -0.865 17 12 1
-0.0984112 -0.201662 -0.86 15 12 1
-0.0965728 -0.201193 -0.858 12 12 1
-0.0945206 -0.200255 -0.854 9 12 7
-0.0924833 -0.199317 -0.85 11 12 14
-0.0906749 -0.198848 -0.848 13 9 10
-0.0890841 -0.198848 -0.848 13 9 6
-0.0871838 -0.198145 -0.845 13 10 3
-0.0855986 -0.198145 -0.845 17 11 1
-0.0838146 -0.197676 -0.843 21 9 2
-0.0820381 -0.197207 -0.841 18 8 4
-0.0804605 -0.197207 -0.841 15 6 4
-0.0786952 -0.196738 -0.839 16 5 4
-0.0771213 -0.196738 -0.839 18 5 3
-0.0755474 -0.196738 -0.839 19 7 2
-0.0739735 -0.196738 -0.839 21 8 6
-0.072227 -0.196269 -0.837 17 8 10
-0.0706569 -0.196269 -0.837 13 10 8
-0.0690867 -0.196269 -0.837 13 9 6
-0.0675166 -0.196269 -0.837 13 12 5
-0.0659464 -0.196269 -0.837 13 11 5
-0.0643763 -0.196269 -0.837 14 10 3
-0.0629562 -0.196738 -0.839 18 12 2
-0.0613823 -0.196738 -0.839 23 7 1
-0.0596658 -0.196269 -0.837 17 8 1
-0.0580956 -0.196269 -0.837 11 10 7
-0.0565255 -0.196269 -0.837 14 12 13
-0.0549553 -0.196269 -0.837 16 14 14
-0.0535127 -0.196738 -0.839 14 17 15
-0.0519388 -0.196738 -0.839 12 15 10
-0.050485 -0.197207 -0.841 12 15 6
-0.0490237 -0.197676 -0.843 13 16 4
-0.0475548 -0.198145 -0.845 11 16 2
-0.0459696 -0.198145 -0.845 10 17 1
-0.0445421 -0.198848 -0.848 16 16 1
-0.0429513 -0.198848 -0.848 21 15 4
-0.0415556 -0.199786 -0.852 19 10 7
-0.0400511 -0.200255 -0.854 18 10 4
-0.038449 -0.200255 -0.854 20 10 1
-0.0370196 -0.201193 -0.858 22 11 7
-0.0354926 -0.201662 -0.86 21 13 14
-0.0339581 -0.202131 -0.862 21 18 13
-0.0324536 -0.202835 -0.865 20 15 12
-0.0309022 -0.203304 -0.867 19 12 14
-0.0293433 -0.203773 -0.869 20 17 17
-0.0279044 -0.20518 -0.875 21 20 22
-0.0263531 -0.205883 -0.878 26 21 27
-0.024706 -0.205883 -0.878 31 26 35
-0.0230589 -0.205883 -0.878 19 24 44
-0.0214119 -0.205883 -0.878 8 7 29
-0.117921 -0.212258 -0.898 15 7 11
-0.116236 -0.212258 -0.898 14 14 10
-0.114297 -0.211785 -0.896 16 17 10
-0.111987 -0.210603 -0.891 18 18 11
-0.110068 -0.21013 -0.889 18 20 12
-0.107791 -0.208948 -0.884 18 19 10
-0.106133 -0.208948 -0.884 17 18 8
-0.102229 -0.204457 -0.865 17 15 5
-0.100606 -0.204457 -0.865 17 14 3
-0.0986401 -0.203748 -0.862 18 13 4
-0.0967979 -0.203276 -0.86 14 12 5
-0.0947419 -0.20233 -0.856 11 12 17
-0.0929185 -0.201857 -0.854 13 12 29
-0.0908888 -0.200912 -0.85 15 10 17
-0.0890841 -0.200439 -0.848 12 9 6
-0.0871838 -0.19973 -0.845 10 11 4
-0.0855986 -0.19973 -0.845 13 14 2
-0.0838146 -0.199257 -0.843 17 10 2
-0.0820381 -0.198785 -0.841 14 9 3
-0.0804605 -0.198785 -0.841 12 9 3
-0.0786952 -0.198312 -0.839 14 9 3
-0.0771213 -0.198312 -0.839 17 7 2
-0.0755474 -0.198312 -0.839 15 6 1
-0.0739735 -0.198312 -0.839 14 7 5
-0.0723996 -0.198312 -0.839 13 9 9
-0.0708257 -0.198312 -0.839 13 10 13
-0.0692518 -0.198312 -0.839 14 10 17
-0.0676779 -0.198312 -0.839 15 11 11
-0.066104 -0.198312 -0.839 15 10 6
-0.0645301 -0.198312 -0.839 15 11 6
-0.0629562 -0.198312 -0.839 17 12 7
-0.0613823 -0.198312 -0.839 19 8 14
-0.0596658 -0.197839 -0.837 16 9 21
-0.0580956 -0.197839 -0.837 14 11 19
-0.0565255 -0.197839 -0.837 15 14 17
-0.0549553 -0.197839 -0.837 17 14 16
-0.0535127 -0.198312 -0.839 14 17 16
-0.0520627 -0.198785 -0.841 11 14 11
-0.0506051 -0.199257 -0.843 12 14 6
-0.0490237 -0.199257 -0.843 14 15 4
-0.0475548 -0.19973 -0.845 14 16 2
-0.0459696 -0.19973 -0.845 14 16 1
-0.0445421 -0.200439 -0.848 19 16 1
-0.0430526 -0.200912 -0.85 25 13 3
-0.0415556 -0.201385 -0.852 22 10 6
-0.0400511 -0.201857 -0.854 19 11 10
-0.0385391 -0.20233 -0.856 20 14 15
-0.0370196 -0.202803 -0.858 21 14 15
-0.0354926 -0.203276 -0.86 23 14 16
-0.0338793 -0.203276 -0.86 25 15 15
-0.0324536 -0.204457 -0.865 21 17 15
-0.0308309 -0.204457 -0.865 17 16 12
-0.0293433 -0.205403 -0.869 19 20 10
-0.0280001 -0.20753 -0.878 22 20 17
-0.0263531 -0.20753 -0.878 25 20 24
-0.0247623 -0.208003 -0.88 28 25 32
-0.0231114 -0.208003 -0.88 21 33 41
-0.0214606 -0.208003 -0.88 14 16 25
-0.118315 -0.214657 -0.901 18 12 20
-0.115719 -0.212989 -0.894 17 17 16
-0.114041 -0.212989 -0.894 20 17 13
-0.111987 -0.212274 -0.891 23 19 10
-0.110068 -0.211798 -0.889 21 19 8
-0.108157 -0.211322 -0.887 20 20 7
-0.106133 -0.210607 -0.884 18 17 7
-0.104001 -0.209654 -0.88 16 17 6
-0.101537 -0.207986 -0.873 16 16 5
-0.0992123 -0.206557 -0.867 16 16 7
-0.097023 -0.205365 -0.862 14 11 9
-0.0951846 -0.204889 -0.86 13 11 26
-0.0933537 -0.204412 -0.858 14 11 44
-0.0915303 -0.203936 -0.856 16 11 25
-0.0895043 -0.202983 -0.852 14 11 7
-0.0876997 -0.202507 -0.85 12 12 5
-0.0859025 -0.20203 -0.848 14 12 3
-0.0840135 -0.201315 -0.845 17 12 3
-0.0822332 -0.200839 -0.843 15 12 3
-0.0804605 -0.200362 -0.841 13 13 3
-0.0788828 -0.200362 -0.841 14 11 3
-0.0773052 -0.200362 -0.841 15 9 2
-0.0755474 -0.199886 -0.839 15 10 1
-0.0739735 -0.199886 -0.839 15 12 4
-0.0723996 -0.199886 -0.839 13 11 8
-0.0708257 -0.199886 -0.839 11 11 18
-0.0692518 -0.199886 -0.839 12 11 29
-0.0676779 -0.199886 -0.839 14 12 18
-0.066104 -0.199886 -0.839 14 9 7
-0.0645301 -0.199886 -0.839 15 14 10
-0.0629562 -0.199886 -0.839 15 11 13
-0.0613823 -0.199886 -0.839 15 9 27
-0.0596658 -0.199409 -0.837 14 10 41
-0.0580956 -0.199409 -0.837 14 12 31
-0.0565255 -0.199409 -0.837 16 13 21
-0.0550867 -0.199886 -0.839 19 14 19
-0.0536403 -0.200362 -0.841 16 14 17
-0.0520627 -0.200362 -0.841 13 14 12
-0.0506051 -0.200839 -0.843 16 12 7
-0.0490237 -0.200839 -0.843 19 11 4
-0.0475548 -0.201315 -0.845 16 14 2
-0.0459696 -0.201315 -0.845 14 18 1
-0.0445421 -0.20203 -0.848 14 15 1
-0.0430526 -0.202507 -0.85 15 11 3
-0.0415556 -0.202983 -0.852 15 11 6
-0.0400511 -0.203459 -0.854 15 12 17
-0.0385391 -0.203936 -0.856 17 15 29
-0.0371059 -0.204889 -0.86 19 16 23
-0.0354926 -0.204889 -0.86 23 15 18
-0.0339581 -0.205365 -0.862 27 14 18
-0.0324536 -0.20608 -0.865 22 14 18
-0.0309022 -0.206557 -0.867 18 15 10
-0.0294783 -0.207986 -0.873 19 17 3
-0.0280001 -0.209177 -0.878 20 20 12
-0.0264131 -0.209654 -0.88 25 19 21
-0.0248185 -0.21013 -0.882 29 25 30
-0.023164 -0.21013 -0.882 26 25 39
-0.0215094 -0.21013 -0.882 24 26 21
-0.113659 -0.213946 -0.891 24 18 18
-0.111987 -0.213946 -0.891 28 17 15
-0.110068 -0.213466 -0.889 25 17 12
-0.108157 -0.212985 -0.887 23 17 10
-0.106133 -0.212265 -0.884 19 17 8
-0.104001 -0.211305 -0.88 15 17 12
-0.101769 -0.210104 -0.875 14 17 16
-0.09967 -0.209144 -0.871 14 14 14
-0.0973607 -0.207703 -0.865 14 11 13
-0.095406 -0.206982 -0.862 15 10 21
-0.0935713 -0.206502 -0.86 16 9 28
-0.0917442 -0.206022 -0.858 18 11 18
-0.0899245 -0.205542 -0.856 16 12 7
-0.087906 -0.204581 -0.852 14 11 5
-0.0863077 -0.204581 -0.852 15 10 3
-0.0840135 -0.2029 -0.845 17 11 3
-0.0824283 -0.2029 -0.845 16 11 4
-0.0806518 -0.20242 -0.843 15 12 5
-0.0788828 -0.20194 -0.841 14 14 7
-0.0773052 -0.20194 -0.841 14 14 4
-0.0757275 -0.20194 -0.841 15 14 2
-0.0741498 -0.20194 -0.841 17 14 5
-0.0725722 -0.20194 -0.841 13 14 7
-0.0708257 -0.20146 -0.839 9 12 13
-0.0694169 -0.20194 -0.841 11 14 19
-0.0678392 -0.20194 -0.841 13 10 12
-0.066104 -0.20146 -0.839 14 9 5
-0.0646839 -0.20194 -0.841 15 9 7
-0.0631063 -0.20194 -0.841 13 10 8
-0.0613823 -0.20146 -0.839 12 11 16
-0.0596658 -0.20098 -0.837 13 13 25
-0.0580956 -0.20098 -0.837 14 13 20
-0.0565255 -0.20098 -0.837 17 10 15
-0.0550867 -0.20146 -0.839 21 14 14
-0.0536403 -0.20194 -0.841 18 14 13
-0.0521865 -0.20242 -0.843 15 13 11
-0.0506051 -0.20242 -0.843 19 11 9
-0.04914 -0.2029 -0.845 24 11 7
-0.0475548 -0.2029 -0.845 19 12 6
-0.0459696 -0.2029 -0.845 14 13 5
-0.0445421 -0.203621 -0.848 10 15 4
-0.0430526 -0.204101 -0.85 6 15 6
-0.0415556 -0.204581 -0.852 9 16 8
-0.0400511 -0.205062 -0.854 12 16 17
-0.0386291 -0.206022 -0.858 15 17 26
-0.0371059 -0.206502 -0.86 18 17 20
-0.0354926 -0.206502 -0.86 23 17 14
-0.0339581 -0.206982 -0.862 29 12 17
-0.0324536 -0.207703 -0.865 24 12 20
-0.0309735 -0.208663 -0.869 20 15 21
-0.0294108 -0.209144 -0.871 19 15 21
-0.0280001 -0.210824 -0.878 19 18 22
-0.0264131 -0.211305 -0.88 25 19 23
-0.0248185 -0.211785 -0.882 31 22 28
-0.023164 -0.211785 -0.882 32 25 33
-0.0215094 -0.211785 -0.882 34 25 19
-0.113404 -0.215133 -0.889 22 14 23
-0.111736 -0.215133 -0.889 24 16 20
-0.109821 -0.214649 -0.887 23 12 17
-0.107791 -0.213923 -0.884 23 8 13
-0.105892 -0.213439 -0.882 19 9 10
-0.104001 -0.212955 -0.88 16 11 18
-0.101769 -0.211745 -0.875 15 10 27
-0.0998988 -0.211261 -0.873 15 9 22
-0.0978109 -0.210294 -0.869 15 9 18
-0.095738 -0.209326 -0.865 16 9 15
-0.0937889 -0.2086 -0.862 15 10 13
-0.0917442 -0.207632 -0.858 15 11 10
-0.0901346 -0.207632 -0.858 14 10 8
-0.0881124 -0.206664 -0.854 12 10 5
-0.0863077 -0.20618 -0.852 13 10 3
-0.0843117 -0.205212 -0.848 14 11 4
-0.0824283 -0.204486 -0.845 14 11 6
-0.0808432 -0.204486 -0.845 14 12 8
-0.0790704 -0.204002 -0.843 12 12 11
-0.077489 -0.204002 -0.843 10 12 7
-0.0757275 -0.203518 -0.841 12 14 4
-0.0741498 -0.203518 -0.841 15 14 5
-0.0725722 -0.203518 -0.841 13 13 7
-0.0709945 -0.203518 -0.841 12 11 8
-0.0694169 -0.203518 -0.841 14 10 10
-0.0678392 -0.203518 -0.841 16 9 7
-0.0662616 -0.203518 -0.841 15 9 4
-0.0646839 -0.203518 -0.841 14 10 4
-0.0631063 -0.203518 -0.841 13 12 4
-0.0615286 -0.203518 -0.841 12 14 6
-0.0598084 -0.203034 -0.839 14 14 9
-0.0582345 -0.203034 -0.839 15 14 9
-0.0566606 -0.203034 -0.839 20 14 9
-0.055218 -0.203518 -0.841 25 14 9
-0.0537679 -0.204002 -0.843 17 14 10
-0.0521865 -0.204002 -0.843 10 13 11
-0.0506051 -0.204002 -0.843 13 11 12
-0.04914 -0.204486 -0.845 17 9 11
-0.0475548 -0.204486 -0.845 15 11 10
-0.0459696 -0.204486 -0.845 13 13 9
-0.0445421 -0.205212 -0.848 11 15 8
-0.0429513 -0.205212 -0.848 8 14 9
-0.0415556 -0.20618 -0.852 10 14 11
-0.0401449 -0.207148 -0.856 12 15 17
-0.0386291 -0.207632 -0.858 15 14 23
-0.0371059 -0.208116 -0.86 19 14 17
-0.0354926 -0.208116 -0.86 21 13 11
-0.0339581 -0.2086 -0.862 24 10 17
-0.0324536 -0.209326 -0.865 21 14 23
-0.0309735 -0.210294 -0.869 18 16 31
-0.0295459 -0.211745 -0.875 16 16 40
-0.0280001 -0.212471 -0.878 15 17 33
-0.0264131 -0.212955 -0.88 20 18 26
-0.0248185 -0.213439 -0.882 25 18 27
-0.023164 -0.213439 -0.882 27 25 28
-0.0215094 -0.213439 -0.882 30 24 17
-0.113404 -0.216801 -0.889 20 13 32
-0.111736 -0.216801 -0.889 20 16 24
-0.109821 -0.216313 -0.887 21 9 17
-0.107791 -0.215582 -0.884 23 9 14
-0.105892 -0.215094 -0.882 20 9 12
-0.104001 -0.214606 -0.88 17 10 16
-0.102118 -0.214119 -0.878 17 10 21
-0.0998988 -0.212899 -0.873 17 11 19
-0.098036 -0.212411 -0.871 17 12 16
-0.095738 -0.210948 -0.865 17 12 12
-0.0941154 -0.210948 -0.865 15 13 8
-0.091958 -0.209729 -0.86 13 12 7
-0.0901346 -0.209241 -0.858 12 14 7
-0.0883187 -0.208753 -0.856 11 12 4
-0.0865103 -0.208266 -0.854 11 11 2
-0.0843117 -0.206802 -0.848 11 12 3
-0.082721 -0.206802 -0.848 12 14 5
-0.0808432 -0.206071 -0.845 14 12 13
-0.0790704 -0.205583 -0.843 10 11 22
-0.077489 -0.205583 -0.843 7 11 14
-0.0759076 -0.205583 -0.843 10 14 6
-0.0741498 -0.205095 -0.841 13 14 6
-0.0725722 -0.205095 -0.841 14 12 7
-0.0709945 -0.205095 -0.841 15 10 8
-0.0694169 -0.205095 -0.841 17 7 10
-0.0678392 -0.205095 -0.841 20 8 8
-0.0662616 -0.205095 -0.841 17 9 5
-0.0646839 -0.205095 -0.841 14 10 5
-0.0632563 -0.205583 -0.843 13 14 4
-0.0615286 -0.205095 -0.841 13 13 7
-0.0599509 -0.205095 -0.841 15 12 10
-0.0583733 -0.205095 -0.841 17 11 10
-0.0567956 -0.205095 -0.841 23 11 11
-0.055218 -0.205095 -0.841 30 14 11
-0.0537679 -0.205583 -0.843 17 14 12
-0.0521865 -0.205583 -0.843 5 12 13
-0.0507251 -0.206071 -0.845 8 12 15
-0.04914 -0.206071 -0.845 11 11 13
-0.0475548 -0.206071 -0.845 12 10 11
-0.0459696 -0.206071 -0.845 13 12 10
-0.0445421 -0.206802 -0.848 12 15 10
-0.0431539 -0.207778 -0.852 11 13 8
-0.0416531 -0.208266 -0.854 12 12 7
-0.0401449 -0.208753 -0.856 13 12 14
-0.0386291 -0.209241 -0.858 16 12 22
-0.0371059 -0.209729 -0.86 20 12 26
-0.0354926 -0.209729 -0.86 20 13 30
-0.0339581 -0.210217 -0.862 20 11 26
-0.0325286 -0.211436 -0.867 18 17 23
-0.0310447 -0.212411 -0.871 17 17 21
-0.0295459 -0.213387 -0.875 14 18 20
-0.0280001 -0.214119 -0.878 11 17 21
-0.0263531 -0.214119 -0.878 15 18 21
-0.0248185 -0.215094 -0.882 20 19 24
-0.023164 -0.215094 -0.882 23 26 27
-0.0215094 -0.215094 -0.882 26 23 20
-0.113404 -0.218469 -0.889 18 16 41
-0.111736 -0.218469 -0.889 18 17 29
-0.109449 -0.21724 -0.884 22 11 18
-0.107791 -0.21724 -0.884 26 11 16
-0.105892 -0.216749 -0.882 21 10 14
-0.104001 -0.216257 -0.88 17 10 15
-0.102118 -0.215766 -0.878 18 11 16
-0.100128 -0.215028 -0.875 19 5 15
-0.098036 -0.214045 -0.871 17 5 15
-0.0959594 -0.213062 -0.867 15 6 9
-0.0941154 -0.212571 -0.865 16 9 4
-0.0921719 -0.211834 -0.862 18 10 5
-0.0903447 -0.211342 -0.86 15 12 6
-0.0885251 -0.210851 -0.858 12 14 3
-0.0867129 -0.210359 -0.856 11 13 1
-0.0845106 -0.208885 -0.85 10 13 2
-0.082721 -0.208393 -0.848 12 12 4
-0.0811302 -0.208393 -0.848 13 6 19
-0.079258 -0.207656 -0.845 14 8 34
-0.0776728 -0.207656 -0.845 16 11 21
-0.0760877 -0.207656 -0.845 14 13 8
-0.0743262 -0.207164 -0.843 13 15 7
-0.0727448 -0.207164 -0.843 13 11 7
-0.0709945 -0.206673 -0.841 14 9 9
-0.0694169 -0.206673 -0.841 18 8 11
-0.0680005 -0.207164 -0.843 21 12 9
-0.0664191 -0.207164 -0.843 19 8 7
-0.0648377 -0.207164 -0.843 16 10 6
-0.0632563 -0.207164 -0.843 18 9 5
-0.0616749 -0.207164 -0.843 20 9 8
-0.0599509 -0.206673 -0.841 18 9 11
-0.0583733 -0.206673 -0.841 17 9 12
-0.0567956 -0.206673 -0.841 21 12 13
-0.0553493 -0.207164 -0.843 25 14 13
-0.0537679 -0.207164 -0.843 17 14 14
-0.0521865 -0.207164 -0.843 9 12 16
-0.0507251 -0.207656 -0.845 10 12 18
-0.04914 -0.207656 -0.845 11 14 15
-0.0477236 -0.208393 -0.848 12 13 12
-0.0461328 -0.208393 -0.848 13 12 12
-0.0447522 -0.209376 -0.852 13 10 13
-0.0432552 -0.209868 -0.854 14 9 8
-0.0417507 -0.210359 -0.856 15 12 3
-0.0401449 -0.210359 -0.856 15 16 12
-0.0386291 -0.210851 -0.858 16 11 21
-0.0371922 -0.211834 -0.862 18 12 35
-0.0355751 -0.211834 -0.862 17 12 50
-0.0340763 -0.212571 -0.865 16 12 36
-0.0326036 -0.213554 -0.869 17 15 23
-0.0310447 -0.214045 -0.871 18 17 12
-0.0294783 -0.214537 -0.873 17 17 1
-0.0279044 -0.215028 -0.875 15 17 9
-0.0263531 -0.215766 -0.878 19 16 17
-0.0248185 -0.216749 -0.882 23 21 21
-0.023164 -0.216749 -0.882 24 21 26
-0.0218508 -0.220189 -0.896 25 22 23
-0.020215 -0.220681 -0.898 13 7 21
-0.0187368 -0.223138 -0.908 1 1 70
-0.0170334 -0.223138 -0.908 64 33 120
-0.111736 -0.220137 -0.889 16 15 16
-0.109449 -0.218898 -0.884 22 14 11
-0.107791 -0.218898 -0.884 29 14 11
-0.105892 -0.218403 -0.882 23 14 11
-0.104001 -0.217908 -0.88 18 13 12
-0.102118 -0.217413 -0.878 19 12 12
-0.100128 -0.21667 -0.875 21 10 12
-0.0982612 -0.216175 -0.873 17 9 12
-0.0961808 -0.215184 -0.869 14 9 10
-0.094333 -0.214689 -0.867 18 9 9
-0.0924927 -0.214194 -0.865 23 10 9
-0.0905548 -0.213451 -0.862 18 10 9
-0.0885251 -0.21246 -0.858 14 14 5
-0.0867129 -0.211965 -0.856 12 16 2
-0.0849083 -0.21147 -0.854 10 12 3
-0.0829161 -0.210479 -0.85 11 11 5
-0.0811302 -0.209984 -0.848 13 8 13
-0.079258 -0.209241 -0.845 19 5 22
-0.0776728 -0.209241 -0.845 25 10 14
-0.0760877 -0.209241 -0.845 19 12 6
-0.0743262 -0.208746 -0.843 13 15 6
-0.0729174 -0.209241 -0.845 13 10 7
-0.0711634 -0.208746 -0.843 14 9 6
-0.069582 -0.208746 -0.843 18 9 6
-0.0680005 -0.208746 -0.843 23 8 6
-0.0664191 -0.208746 -0.843 21 8 6
-0.0648377 -0.208746 -0.843 19 8 4
-0.0634064 -0.209241 -0.845 23 9 3
-0.0618212 -0.209241 -0.845 27 9 7
-0.0600935 -0.208746 -0.843 22 9 12
-0.0585121 -0.208746 -0.843 18 10 16
-0.0569307 -0.208746 -0.843 19 14 21
-0.0553493 -0.208746 -0.843 21 14 17
-0.0538954 -0.209241 -0.845 17 14 13
-0.0523103 -0.209241 -0.845 13 12 13
-0.0507251 -0.209241 -0.845 12 12 14
-0.0493144 -0.209984 -0.848 12 12 11
-0.0477236 -0.209984 -0.848 12 13 8
-0.0463505 -0.210974 -0.852 13 12 12
-0.0447522 -0.210974 -0.852 15 11 16
-0.0432552 -0.21147 -0.854 18 10 13
-0.0417507 -0.211965 -0.856 18 12 11
-0.0402387 -0.21246 -0.858 18 11 17
-0.0387192 -0.212955 -0.86 17 10 24
-0.0371922 -0.213451 -0.862 16 13 30
-0.0355751 -0.213451 -0.862 14 16 37
-0.0340763 -0.214194 -0.865 12 13 30
-0.0326036 -0.215184 -0.869 16 13 23
-0.0310447 -0.215679 -0.871 20 14 14
-0.0294783 -0.216175 -0.873 20 15 5
-0.0279044 -0.21667 -0.875 20 15 8
-0.0263531 -0.217413 -0.878 23 15 11
-0.024706 -0.217413 -0.878 27 23 17
-0.0232953 -0.219641 -0.887 26 23 23
-0.021802 -0.221375 -0.894 25 24 21
-0.020125 -0.221375 -0.894 13 12 19
-0.0186749 -0.224098 -0.905 1 1 59
-0.017071 -0.225337 -0.91 58 8 100
-0.0153639 -0.225337 -0.91 115 141 160
-0.109821 -0.221305 -0.887 18 10 5
-0.107791 -0.220557 -0.884 23 10 7
-0.105892 -0.220058 -0.882 20 12 9
-0.104001 -0.219559 -0.88 17 14 9
-0.102118 -0.21906 -0.878 18 14 9
-0.100128 -0.218311 -0.875 20 14 9
-0.0982612 -0.217812 -0.873 17 13 9
-0.0961808 -0.216814 -0.869 14 12 11
-0.0945506 -0.216814 -0.869 17 11 14
-0.0924927 -0.215816 -0.865 20 11 13
-0.0905548 -0.215068 -0.862 17 10 12
-0.0885251 -0.21407 -0.858 15 14 7
-0.0867129 -0.213571 -0.856 13 14 3
-0.0849083 -0.213072 -0.854 11 12 4
-0.0831112 -0.212573 -0.852 13 11 6
-0.0813215 -0.212074 -0.85 16 10 8
-0.0795394 -0.211575 -0.848 18 10 10
-0.0779486 -0.211575 -0.848 21 10 7
-0.0760877 -0.210826 -0.845 16 13 4
-0.0745025 -0.210826 -0.845 11 15 5
-0.0729174 -0.210826 -0.845 12 12 7
-0.0711634 -0.210327 -0.843 14 9 4
-0.069582 -0.210327 -0.843 17 9 2
-0.0680005 -0.210327 -0.843 20 10 3
-0.0664191 -0.210327 -0.843 18 8 5
-0.0648377 -0.210327 -0.843 16 7 3
-0.0634064 -0.210826 -0.845 18 9 1
-0.0618212 -0.210826 -0.845 20 13 7
-0.0600935 -0.210327 -0.843 17 12 14
-0.0585121 -0.210327 -0.843 15 11 21
-0.0569307 -0.210327 -0.843 20 10 29
-0.0554806 -0.210826 -0.845 26 10 20
-0.0538954 -0.210826 -0.845 18 11 12
-0.0523103 -0.210826 -0.845 10 12 11
-0.0509052 -0.211575 -0.848 11 12 11
-0.0494307 -0.212074 -0.85 12 10 8
-0.0478362 -0.212074 -0.85 12 11 5
-0.0463505 -0.212573 -0.852 11 12 12
-0.0448572 -0.213072 -0.854 13 11 19
-0.0432552 -0.213072 -0.854 16 10 19
-0.0418482 -0.21407 -0.858 16 12 19
-0.0403325 -0.214569 -0.86 16 7 23
-0.0387192 -0.214569 -0.86 16 10 27
-0.0371922 -0.215068 -0.862 16 14 26
-0.0355751 -0.215068 -0.862 12 15 25
-0.034155 -0.216315 -0.867 8 14 24
-0.0326036 -0.216814 -0.869 16 13 23
-0.0310447 -0.217313 -0.871 25 12 16
-0.0294783 -0.217812 -0.873 23 13 9
-0.0279044 -0.218311 -0.875 22 14 7
-0.0263531 -0.21906 -0.878 26 17 6
-0.0248185 -0.220058 -0.882 29 26 13
-0.0233478 -0.221804 -0.889 27 26 21
-0.021802 -0.223052 -0.894 25 26 19
-0.020215 -0.22405 -0.898 15 15 18
-0.0186336 -0.225297 -0.903 5 1 49
-0.0170334 -0.226545 -0.908 44 4 80
-0.0153301 -0.226545 -0.908 83 112 147
-0.109821 -0.222969 -0.887 15 11 7
-0.107791 -0.222215 -0.884 17 9 8
-0.105892 -0.221712 -0.882 17 8 8
-0.104001 -0.22121 -0.88 17 13 7
-0.102118 -0.220707 -0.878 18 15 7
-0.100128 -0.219953 -0.875 19 15 6
-0.0982612 -0.21945 -0.873 16 15 6
-0.0964021 -0.218947 -0.871 14 15 10
-0.0945506 -0.218444 -0.869 15 15 14
-0.0924927 -0.217439 -0.865 17 11 18
-0.0905548 -0.216685 -0.862 17 11 23
-0.0887314 -0.216182 -0.86 17 13 14
-0.0869155 -0.215679 -0.858 14 14 6
-0.0851071 -0.215177 -0.856 12 13 7
-0.0831112 -0.214171 -0.852 16 12 8
-0.0815129 -0.214171 -0.852 20 9 13
-0.079727 -0.213668 -0.85 18 7 18
-0.0779486 -0.213166 -0.848 17 11 11
-0.0763578 -0.213166 -0.848 13 15 4
-0.0745025 -0.212411 -0.845 10 15 6
-0.0729174 -0.212411 -0.845 12 15 7
-0.0713322 -0.212411 -0.845 14 13 8
-0.069747 -0.212411 -0.845 15 12 9
-0.0681619 -0.212411 -0.845 17 9 9
-0.0665767 -0.212411 -0.845 15 9 10
-0.0649916 -0.212411 -0.845 14 9 8
-0.0634064 -0.212411 -0.845 13 10 6
-0.0618212 -0.212411 -0.845 13 11 11
-0.0600935 -0.211909 -0.843 13 12 15
-0.0585121 -0.211909 -0.843 13 11 19
-0.0570658 -0.212411 -0.845 22 10 23
-0.0554806 -0.212411 -0.845 31 10 18
-0.0540868 -0.213166 -0.848 19 11 12
-0.052496 -0.213166 -0.848 7 13 16
-0.0509052 -0.213166 -0.848 10 14 19
-0.049547 -0.214171 -0.852 13 13 15
-0.0479487 -0.214171 -0.852 11 17 11
-0.0463505 -0.214171 -0.852 10 12 17
-0.0448572 -0.214674 -0.854 12 13 22
-0.0432552 -0.214674 -0.854 14 13 22
-0.0418482 -0.215679 -0.858 14 13 22
-0.0402387 -0.215679 -0.858 14 8 27
-0.0387192 -0.216182 -0.86 15 10 33
-0.0371922 -0.216685 -0.862 17 15 28
-0.0356989 -0.217439 -0.865 11 16 24
-0.034155 -0.217942 -0.867 5 15 27
-0.0326036 -0.218444 -0.869 17 14 30
-0.0310447 -0.218947 -0.871 30 10 19
-0.0294783 -0.21945 -0.873 27 9 7
-0.0279044 -0.219953 -0.875 25 13 10
-0.026263 -0.219953 -0.875 28 19 14
-0.0248748 -0.222215 -0.884 32 21 22
-0.0234003 -0.223975 -0.891 28 24 31
-0.0218508 -0.225232 -0.896 25 21 30
-0.020215 -0.225734 -0.898 17 18 30
-0.0185923 -0.226488 -0.901 9 4 36
-0.0169021 -0.226488 -0.901 30 1 42
-0.0152794 -0.227494 -0.905 52 67 124
-0.109821 -0.224633 -0.887 14 8 10
-0.107791 -0.223873 -0.884 17 9 9
-0.105892 -0.223367 -0.882 17 10 8
-0.104001 -0.22286 -0.88 17 13 6
-0.102118 -0.222354 -0.878 18 14 5
-0.100128 -0.221594 -0.875 19 15 4
-0.0982612 -0.221088 -0.873 20 14 4
-0.0964021 -0.220581 -0.871 20 14 9
-0.0945506 -0.220075 -0.869 19 15 15
-0.0927065 -0.219568 -0.867 17 12 24
-0.0905548 -0.218302 -0.862 16 12 34
-0.0887314 -0.217795 -0.86 15 13 21
-0.0869155 -0.217289 -0.858 11 13 9
-0.0851071 -0.216782 -0.856 8 14 10
-0.0833062 -0.216276 -0.854 16 11 11
-0.0815129 -0.215769 -0.852 25 9 19
-0.079727 -0.215263 -0.85 20 9 27
-0.0781324 -0.215263 -0.85 15 12 16
-0.0763578 -0.214756 -0.848 13 13 5
-0.074767 -0.214756 -0.848 12 17 6
-0.0731762 -0.214756 -0.848 12 15 8
-0.0713322 -0.213997 -0.845 13 14 12
-0.069747 -0.213997 -0.845 13 12 16
-0.0681619 -0.213997 -0.845 14 7 15
-0.0665767 -0.213997 -0.845 13 9 15
-0.0649916 -0.213997 -0.845 13 10 13
-0.0634064 -0.213997 -0.845 12 9 12
-0.0618212 -0.213997 -0.845 11 9 14
-0.0602361 -0.213997 -0.845 12 8 17
-0.0586509 -0.213997 -0.845 14 7 17
-0.0570658 -0.213997 -0.845 19 10 18
-0.0554806 -0.213997 -0.845 24 10 15
-0.0540868 -0.214756 -0.848 17 11 13
-0.052496 -0.214756 -0.848 10 14 20
-0.0510253 -0.215263 -0.85 11 14 28
-0.0494307 -0.215263 -0.85 12 13 23
-0.0479487 -0.215769 -0.852 10 12 18
-0.0463505 -0.215769 -0.852 8 12 22
-0.0448572 -0.216276 -0.854 11 12 26
-0.0432552 -0.216276 -0.854 13 12 26
-0.0418482 -0.217289 -0.858 12 13 26
-0.0403325 -0.217795 -0.86 12 9 32
-0.0388092 -0.218302 -0.862 18 10 39
-0.0374079 -0.219568 -0.867 24 17 31
-0.035864 -0.220075 -0.869 17 16 23
-0.0342338 -0.220075 -0.869 10 17 30
-0.0326787 -0.220581 -0.871 17 12 38
-0.0310447 -0.220581 -0.871 24 9 22
-0.0295459 -0.221594 -0.875 22 11 6
-0.0279044 -0.221594 -0.875 21 13 14
-0.0263531 -0.222354 -0.878 22 18 22
-0.0249592 -0.224633 -0.887 24 20 32
-0.0234791 -0.226406 -0.894 23 19 42
-0.0218508 -0.226912 -0.896 23 19 42
-0.020215 -0.227419 -0.898 21 18 42
-0.0185304 -0.227419 -0.898 20 8 23
-0.0169772 -0.229192 -0.905 23 1 4
-0.0152794 -0.229192 -0.905 26 23 102
-0.0137318 -0.231724 -0.915 121 150 200
-0.0120153 -0.231724 -0.915 215 222 209
-0.108157 -0.226297 -0.887 18 8 15
-0.106133 -0.225532 -0.884 18 12 18
-0.104238 -0.225021 -0.882 18 13 11
-0.102351 -0.224511 -0.88 19 18 4
-0.100128 -0.223236 -0.875 20 14 3
-0.0982612 -0.222725 -0.873 23 14 2
-0.0964021 -0.222215 -0.871 27 14 6
-0.0945506 -0.221705 -0.869 22 15 10
-0.0927065 -0.221195 -0.867 18 12 14
-0.09087 -0.220684 -0.865 16 12 18
-0.0889378 -0.219919 -0.862 14 12 13
-0.0869155 -0.218898 -0.858 9 18 8
-0.0851071 -0.218388 -0.856 4 14 8
-0.0833062 -0.217878 -0.854 17 11 9
-0.0815129 -0.217368 -0.852 30 10 11
-0.0799146 -0.217368 -0.852 22 10 14
-0.0781324 -0.216857 -0.85 14 10 9
-0.0763578 -0.216347 -0.848 14 10 5
-0.074767 -0.216347 -0.848 14 13 5
-0.0731762 -0.216347 -0.848 13 15 6
-0.0713322 -0.215582 -0.845 13 14 12
-0.069747 -0.215582 -0.845 12 12 19
-0.0681619 -0.215582 -0.845 11 7 17
-0.0668131 -0.216347 -0.848 11 10 14
-0.0652223 -0.216347 -0.848 12 11 12
-0.0636315 -0.216347 -0.848 11 12 9
-0.0620407 -0.216347 -0.848 10 10 10
-0.0602361 -0.215582 -0.845 12 9 11
-0.0586509 -0.215582 -0.845 15 9 12
-0.0572684 -0.216347 -0.848 16 10 14
-0.0556776 -0.216347 -0.848 17 10 11
-0.0542143 -0.216857 -0.85 15 11 8
-0.0526198 -0.216857 -0.85 13 14 12
-0.0510253 -0.216857 -0.85 12 15 16
-0.0496633 -0.217878 -0.854 11 13 14
-0.0480613 -0.217878 -0.854 9 10 13
-0.0464593 -0.217878 -0.854 7 13 14
-0.0449623 -0.218388 -0.856 10 13 16
-0.0434578 -0.218898 -0.858 13 13 15
-0.0418482 -0.218898 -0.858 11 13 14
-0.0403325 -0.219409 -0.86 10 9 20
-0.0389443 -0.220684 -0.865 20 11 27
-0.0374079 -0.221195 -0.867 31 13 24
-0.035864 -0.221705 -0.869 23 16 21
-0.0343126 -0.222215 -0.871 15 13 25
-0.0326787 -0.222215 -0.871 17 11 29
-0.031116 -0.222725 -0.873 19 9 21
-0.0295459 -0.223236 -0.875 18 14 13
-0.0280001 -0.224001 -0.878 17 16 18
-0.0264131 -0.224511 -0.88 17 18 23
-0.0250155 -0.226807 -0.889 17 19 27
-0.0234791 -0.228083 -0.894 19 21 31
-0.0218508 -0.228593 -0.896 21 19 33
-0.020215 -0.229103 -0.898 26 18 35
-0.0185304 -0.229103 -0.898 31 11 22
-0.0169396 -0.230379 -0.903 16 1 9
-0.0152457 -0.230379 -0.903 1 12 99
-0.0137318 -0.233441 -0.915 100 123 190
-0.0120153 -0.233441 -0.915 199 213 205
-0.110316 -0.228989 -0.891 13 6 14
-0.108401 -0.228475 -0.889 15 8 21
-0.106493 -0.227961 -0.887 15 10 29
-0.104238 -0.226676 -0.882 16 14 16
-0.102351 -0.226162 -0.88 16 14 4
-0.100471 -0.225648 -0.878 16 14 2
-0.0984863 -0.224877 -0.875 19 12 1
-0.0966235 -0.224363 -0.873 23 10 3
-0.0945506 -0.223335 -0.869 20 9 6
-0.0927065 -0.222821 -0.867 16 9 4
-0.09087 -0.222307 -0.865 17 10 2
-0.0889378 -0.221536 -0.862 18 11 4
-0.0871181 -0.221022 -0.86 12 12 7
-0.085306 -0.220508 -0.858 5 14 7
-0.0835013 -0.219994 -0.856 14 12 7
-0.0817042 -0.21948 -0.854 23 10 4
-0.0801022 -0.21948 -0.854 20 10 1
-0.0783163 -0.218966 -0.852 17 9 3
-0.0765379 -0.218452 -0.85 15 10 6
-0.074767 -0.217938 -0.848 13 12 5
-0.0731762 -0.217938 -0.848 13 14 4
-0.0715854 -0.217938 -0.848 13 14 13
-0.0699947 -0.217938 -0.848 11 11 23
-0.0684039 -0.217938 -0.848 9 7 18
-0.0668131 -0.217938 -0.848 11 9 14
-0.0652223 -0.217938 -0.848 13 12 10
-0.0636315 -0.217938 -0.848 11 11 7
-0.0620407 -0.217938 -0.848 10 11 6
-0.0602361 -0.217167 -0.845 11 10 5
-0.0588591 -0.217938 -0.848 12 9 8
-0.0572684 -0.217938 -0.848 14 9 11
-0.0558089 -0.218452 -0.85 17 10 7
-0.0542143 -0.218452 -0.85 19 11 4
-0.0527436 -0.218966 -0.852 21 14 4
-0.0511453 -0.218966 -0.852 17 14 4
-0.049547 -0.218966 -0.852 14 14 6
-0.0480613 -0.21948 -0.854 12 14 8
-0.0464593 -0.21948 -0.854 11 14 7
-0.0448572 -0.21948 -0.854 12 14 7
-0.0434578 -0.220508 -0.858 13 14 4
-0.0419458 -0.221022 -0.86 13 11 2
-0.0404263 -0.221536 -0.862 12 10 8
-0.0389443 -0.222307 -0.865 19 10 15
-0.0374079 -0.222821 -0.867 27 9 17
-0.035864 -0.223335 -0.869 22 9 20
-0.0343126 -0.223849 -0.871 17 10 20
-0.0326787 -0.223849 -0.871 17 10 21
-0.031116 -0.224363 -0.873 18 10 20
-0.0295459 -0.224877 -0.875 15 13 20
-0.0280001 -0.225648 -0.878 12 20 22
-0.0264731 -0.226676 -0.882 14 18 25
-0.0250155 -0.228475 -0.889 16 19 23
-0.0234791 -0.22976 -0.894 20 20 21
-0.0218508 -0.230274 -0.896 23 19 24
-0.020215 -0.230788 -0.898 26 17 28
-0.0185304 -0.230788 -0.898 30 15 21
-0.0169396 -0.232073 -0.903 15 1 14
-0.0152457 -0.232073 -0.903 1 1 97
-0.0137318 -0.235157 -0.915 86 97 181
-0.0120153 -0.235157 -0.915 171 205 202
-0.110687 -0.231437 -0.894 12 6 7
-0.108401 -0.230143 -0.889 12 7 14
-0.106493 -0.229625 -0.887 13 9 20
-0.104474 -0.228848 -0.884 14 14 12
-0.102351 -0.227813 -0.88 13 15 4
-0.100471 -0.227295 -0.878 12 14 3
-0.0984863 -0.226518 -0.875 16 9 3
-0.0966235 -0.226001 -0.873 20 10 5
-0.0947682 -0.225483 -0.871 17 10 6
-0.0929204 -0.224965 -0.869 15 10 8
-0.0910801 -0.224447 -0.867 19 10 11
-0.0892473 -0.22393 -0.865 23 10 10
-0.0873207 -0.223153 -0.862 15 9 9
-0.0855048 -0.222635 -0.86 7 14 9
-0.0835013 -0.2216 -0.856 12 14 9
-0.0818956 -0.2216 -0.856 17 11 9
-0.0801022 -0.221082 -0.854 18 10 10
-0.0785001 -0.221082 -0.854 20 10 8
-0.076718 -0.220564 -0.852 16 10 6
-0.0749434 -0.220046 -0.85 13 12 4
-0.0733488 -0.220046 -0.85 13 17 2
-0.0717543 -0.220046 -0.85 13 11 9
-0.0699947 -0.219529 -0.848 10 10 16
-0.0684039 -0.219529 -0.848 8 9 13
-0.0668131 -0.219529 -0.848 11 9 10
-0.0652223 -0.219529 -0.848 15 12 9
-0.0636315 -0.219529 -0.848 12 10 7
-0.062187 -0.220046 -0.85 10 12 5
-0.0604499 -0.219529 -0.848 10 13 3
-0.0588591 -0.219529 -0.848 10 11 7
-0.0574034 -0.220046 -0.85 13 9 12
-0.0558089 -0.220046 -0.85 17 11 9
-0.0542143 -0.220046 -0.85 23 12 6
-0.0527436 -0.220564 -0.852 29 11 4
-0.0511453 -0.220564 -0.852 23 11 2
-0.049547 -0.220564 -0.852 18 13 4
-0.0480613 -0.221082 -0.854 16 15 7
-0.0464593 -0.221082 -0.854 15 12 6
-0.0449623 -0.2216 -0.856 14 10 6
-0.0434578 -0.222117 -0.858 14 9 4
-0.0419458 -0.222635 -0.86 14 9 3
-0.0404263 -0.223153 -0.862 15 9 9
-0.0389443 -0.22393 -0.865 19 10 16
-0.0374079 -0.224447 -0.867 23 8 16
-0.035864 -0.224965 -0.869 21 6 17
-0.0343126 -0.225483 -0.871 19 10 15
-0.0326787 -0.225483 -0.871 18 9 14
-0.0311873 -0.226518 -0.875 18 10 16
-0.0296472 -0.227295 -0.878 12 12 19
-0.0280639 -0.227813 -0.88 7 20 25
-0.0264731 -0.228331 -0.882 11 18 32
-0.0250155 -0.230143 -0.889 16 18 27
-0.0234003 -0.23066 -0.891 21 21 23
-0.0218508 -0.231955 -0.896 26 18 19
-0.020215 -0.232473 -0.898 27 17 16
-0.0185923 -0.233249 -0.901 29 14 15
-0.0169396 -0.233767 -0.903 15 2 13
-0.0152457 -0.233767 -0.903 1 1 81
-0.0135517 -0.233767 -0.903 72 71 149
-0.108401 -0.23181 -0.889 15 7 6
-0.106493 -0.231289 -0.887 15 11 12
-0.104474 -0.230507 -0.884 15 15 8
-0.102351 -0.229464 -0.88 14 15 4
-0.100471 -0.228942 -0.878 13 14 5
-0.0984863 -0.22816 -0.875 17 10 6
-0.0966235 -0.227638 -0.873 21 10 6
-0.0947682 -0.227117 -0.871 18 11 7
-0.0929204 -0.226595 -0.869 16 12 13
-0.0910801 -0.226074 -0.867 18 10 20
-0.0892473 -0.225552 -0.865 20 10 16
-0.0873207 -0.22477 -0.862 15 12 12
-0.0855048 -0.224249 -0.86 9 14 12
-0.0838915 -0.224249 -0.86 12 13 12
-0.0818956 -0.223206 -0.856 15 13 15
-0.0801022 -0.222684 -0.854 19 11 19
-0.0785001 -0.222684 -0.854 23 10 12
-0.0768981 -0.222684 -0.854 18 11 6
-0.0751197 -0.222163 -0.852 13 12 3
-0.0733488 -0.221641 -0.85 14 10 1
-0.0717543 -0.221641 -0.85 15 9 5
-0.0701597 -0.221641 -0.85 12 9 10
-0.0684039 -0.221119 -0.848 9 12 8
-0.0669707 -0.221641 -0.85 11 12 7
-0.0653761 -0.221641 -0.85 13 12 7
-0.0637816 -0.221641 -0.85 12 12 8
-0.062187 -0.221641 -0.85 10 14 4
-0.0604499 -0.221119 -0.848 10 14 1
-0.058998 -0.221641 -0.85 11 14 7
-0.0574034 -0.221641 -0.85 13 13 13
-0.0559402 -0.222163 -0.852 16 12 11
-0.0543419 -0.222163 -0.852 19 12 9
-0.0527436 -0.222163 -0.852 23 10 5
-0.0511453 -0.222163 -0.852 20 10 1
-0.0496633 -0.222684 -0.854 17 9 3
-0.0480613 -0.222684 -0.854 16 9 6
-0.0464593 -0.222684 -0.854 15 9 5
-0.0449623 -0.223206 -0.856 13 10 5
-0.0434578 -0.223727 -0.858 12 10 5
-0.0419458 -0.224249 -0.86 13 8 5
-0.0404263 -0.22477 -0.862 14 7 11
-0.0390343 -0.226074 -0.867 20 9 17
-0.0374079 -0.226074 -0.867 26 4 15
-0.035864 -0.226595 -0.869 22 5 14
-0.0343126 -0.227117 -0.871 19 11 10
-0.0327537 -0.227638 -0.873 17 12 7
-0.0311873 -0.22816 -0.875 16 21 13
-0.0297147 -0.229464 -0.88 13 20 19
-0.0280639 -0.229464 -0.88 10 20 29
-0.0265331 -0.230507 -0.884 13 17 39
-0.0250155 -0.23181 -0.889 16 17 32
-0.0234003 -0.232332 -0.891 20 17 25
-0.0218508 -0.233636 -0.896 25 18 15
-0.020215 -0.234157 -0.898 25 17 5
-0.0185304 -0.234157 -0.898 25 14 9
-0.0169396 -0.235461 -0.903 13 7 13
-0.0152457 -0.235461 -0.903 2 1 65
-0.0135517 -0.235461 -0.903 49 36 118
-0.108401 -0.233478 -0.889 19 10 18
-0.106493 -0.232953 -0.887 17 14 28
-0.104474 -0.232165 -0.884 16 15 21
-0.102583 -0.23164 -0.882 15 16 15
-0.1007 -0.231114 -0.88 14 14 11
-0.0984863 -0.229801 -0.875 18 12 8
-0.0968448 -0.229801 -0.875 23 12 8
-0.0947682 -0.228751 -0.871 20 12 9
-0.0929204 -0.228226 -0.869 17 11 13
-0.0910801 -0.2277 -0.867 17 11 16
-0.0894537 -0.2277 -0.867 18 11 13
-0.0876246 -0.227175 -0.865 15 16 10
-0.0857037 -0.226387 -0.862 12 14 10
-0.0838915 -0.225862 -0.86 12 12 9
-0.0818956 -0.224811 -0.856 13 12 12
-0.0801022 -0.224286 -0.854 19 12 15
-0.0785001 -0.224286 -0.854 26 11 11
-0.0768981 -0.224286 -0.854 19 13 8
-0.0751197 -0.223761 -0.852 13 12 7
-0.0735214 -0.223761 -0.852 15 12 5
-0.0717543 -0.223236 -0.85 18 9 10
-0.0701597 -0.223236 -0.85 14 9 15
-0.0685652 -0.223236 -0.85 11 10 12
-0.0669707 -0.223236 -0.85 11 12 10
-0.0653761 -0.223236 -0.85 12 12 9
-0.0639317 -0.223761 -0.852 11 12 9
-0.0623334 -0.223761 -0.852 11 12 6
-0.0605925 -0.223236 -0.85 11 12 3
-0.0591368 -0.223761 -0.852 12 12 13
-0.0575385 -0.223761 -0.852 13 13 22
-0.0559402 -0.223761 -0.852 15 12 15
-0.0543419 -0.223761 -0.852 16 12 9
-0.0527436 -0.223761 -0.852 17 12 7
-0.0511453 -0.223761 -0.852 17 12 5
-0.0496633 -0.224286 -0.854 17 10 12
-0.0480613 -0.224286 -0.854 16 9 20
-0.0465681 -0.224811 -0.856 15 9 15
-0.0449623 -0.224811 -0.856 12 10 10
-0.0435591 -0.225862 -0.86 10 9 8
-0.0419458 -0.225862 -0.86 11 8 7
-0.0404263 -0.226387 -0.862 13 7 18
-0.0390343 -0.2277 -0.867 21 8 30
-0.0374942 -0.228226 -0.869 30 6 23
-0.0359465 -0.228751 -0.871 24 5 16
-0.0343126 -0.228751 -0.871 19 12 10
-0.0327537 -0.229276 -0.873 16 16 5
-0.0311873 -0.229801 -0.875 14 18 10
-0.0297147 -0.231114 -0.88 14 22 16
-0.0280639 -0.231114 -0.88 14 18 23
-0.0265331 -0.232165 -0.884 15 16 30
-0.0250155 -0.233478 -0.889 17 16 26
-0.0234003 -0.234003 -0.891 20 13 23
-0.0218508 -0.235317 -0.896 24 18 17
-0.020215 -0.235842 -0.898 22 17 12
-0.0185304 -0.235842 -0.898 21 15 19
-0.0169021 -0.23663 -0.901 12 13 26
-0.0152119 -0.23663 -0.901 4 5 46
-0.0135217 -0.23663 -0.901 26 1 66
-0.108401 -0.235146 -0.889 24 12 30
-0.106733 -0.235146 -0.889 21 12 44
-0.104829 -0.234617 -0.887 17 12 35
-0.102816 -0.233823 -0.884 15 10 26
-0.100929 -0.233294 -0.882 12 9 18
-0.0988239 -0.232236 -0.878 12 9 10
-0.0968448 -0.231443 -0.875 12 9 11
-0.0949858 -0.230914 -0.873 13 12 12
-0.0931342 -0.230385 -0.871 14 11 12
-0.0912902 -0.229856 -0.869 17 11 13
-0.0894537 -0.229327 -0.867 21 12 11
-0.0876246 -0.228798 -0.865 17 13 9
-0.0857037 -0.228004 -0.862 13 14 8
-0.0840866 -0.228004 -0.862 12 12 7
-0.0820869 -0.226946 -0.858 11 9 9
-0.0802898 -0.226417 -0.856 15 9 11
-0.0785001 -0.225888 -0.854 20 9 11
-0.0768981 -0.225888 -0.854 15 10 11
-0.0751197 -0.225359 -0.852 10 11 10
-0.0735214 -0.225359 -0.852 13 10 10
-0.0719231 -0.225359 -0.852 16 9 15
-0.0703248 -0.225359 -0.852 14 8 20
-0.0687265 -0.225359 -0.852 11 4 17
-0.0669707 -0.22483 -0.85 12 5 14
-0.0655299 -0.225359 -0.852 13 7 12
-0.0639317 -0.225359 -0.852 16 7 10
-0.0623334 -0.225359 -0.852 20 8 8
-0.0605925 -0.22483 -0.85 13 11 6
-0.0591368 -0.225359 -0.852 7 11 19
-0.0575385 -0.225359 -0.852 11 11 32
-0.0559402 -0.225359 -0.852 14 6 20
-0.0543419 -0.225359 -0.852 16 12 9
-0.0528674 -0.225888 -0.854 18 14 9
-0.0512654 -0.225888 -0.854 17 12 9
-0.0496633 -0.225888 -0.854 15 11 22
-0.0481739 -0.226417 -0.856 15 10 35
-0.0465681 -0.226417 -0.856 15 9 25
-0.0450673 -0.226946 -0.858 13 9 15
-0.0435591 -0.227475 -0.86 12 8 12
-0.0420433 -0.228004 -0.862 13 8 9
-0.040567 -0.228798 -0.865 15 7 26
-0.0390343 -0.229327 -0.867 19 7 44
-0.0374942 -0.229856 -0.869 24 8 31
-0.0359465 -0.230385 -0.871 21 7 18
-0.0343126 -0.230385 -0.871 19 14 11
-0.0327537 -0.230914 -0.873 16 16 4
-0.0311873 -0.231443 -0.875 13 16 8
-0.0297147 -0.232765 -0.88 14 16 13
-0.0281277 -0.233294 -0.882 15 17 17
-0.0265331 -0.233823 -0.884 15 16 21
-0.0250155 -0.235146 -0.889 16 15 21
-0.0234003 -0.235675 -0.891 19 17 21
-0.021802 -0.236468 -0.894 22 19 20
-0.02017 -0.236997 -0.896 22 17 20
-0.0185304 -0.237526 -0.898 23 18 29
-0.0169021 -0.23832 -0.901 20 17 39
-0.0152119 -0.23832 -0.901 17 9 26
-0.0135217 -0.23832 -0.901 21 1 14
-0.108644 -0.237346 -0.891 30 12 18
-0.106733 -0.236814 -0.889 24 12 24
-0.105065 -0.236814 -0.889 19 12 19
-0.103165 -0.236281 -0.887 15 12 15
-0.101158 -0.235482 -0.884 11 12 10
-0.099049 -0.234416 -0.88 6 13 5
-0.0971769 -0.233883 -0.878 2 12 6
-0.0949858 -0.232551 -0.873 6 12 8
-0.0931342 -0.232019 -0.871 11 12 9
-0.0912902 -0.231486 -0.869 17 12 11
-0.0894537 -0.230953 -0.867 24 12 8
-0.0876246 -0.23042 -0.865 19 12 6
-0.086002 -0.23042 -0.865 15 12 8
-0.0840866 -0.229621 -0.862 12 12 9
-0.0820869 -0.228556 -0.858 10 10 11
-0.0802898 -0.228023 -0.856 12 7 12
-0.078684 -0.228023 -0.856 14 9 12
-0.0768981 -0.22749 -0.854 10 9 11
-0.075296 -0.22749 -0.854 7 10 16
-0.073694 -0.22749 -0.854 11 9 22
-0.0719231 -0.226957 -0.852 15 9 18
-0.0704899 -0.22749 -0.854 13 8 15
-0.0687265 -0.226957 -0.852 12 7 11
-0.0671282 -0.226957 -0.852 13 7 7
-0.0655299 -0.226957 -0.852 14 7 8
-0.0640817 -0.22749 -0.854 21 7 10
-0.0624797 -0.22749 -0.854 29 8 7
-0.0607351 -0.226957 -0.852 16 10 4
-0.0591368 -0.226957 -0.852 3 10 10
-0.0575385 -0.226957 -0.852 8 10 16
-0.0559402 -0.226957 -0.852 14 11 11
-0.0543419 -0.226957 -0.852 17 13 7
-0.0528674 -0.22749 -0.854 20 12 9
-0.0512654 -0.22749 -0.854 17 12 12
-0.0497796 -0.228023 -0.856 14 12 21
-0.0481739 -0.228023 -0.856 14 13 30
-0.0466769 -0.228556 -0.858 15 10 20
-0.0451724 -0.229088 -0.86 14 9 11
-0.0435591 -0.229088 -0.86 14 9 8
-0.0420433 -0.229621 -0.862 15 9 5
-0.040567 -0.23042 -0.865 17 10 15
-0.0390343 -0.230953 -0.867 17 12 25
-0.0374942 -0.231486 -0.869 18 8 21
