ply
format ascii 1.0
element vertex 1197
property float x
property float y
property float z
property uchar red
property uchar green
property uchar blue
end_header
0.039591 -0.203613 -0.603000 159 103 86
0.040723 -0.203613 -0.603000 159 105 84
0.041923 -0.203951 -0.604000 159 103 84
0.043128 -0.204289 -0.605000 158 101 84
0.044262 -0.204289 -0.605000 157 104 80
0.045398 -0.204289 -0.605000 158 104 76
0.046609 -0.204626 -0.606000 160 102 79
0.047825 -0.204964 -0.607000 158 100 83
0.048964 -0.204964 -0.607000 156 112 76
0.050185 -0.205302 -0.608000 160 112 69
0.051579 -0.206315 -0.611000 164 111 83
0.052897 -0.206990 -0.613000 166 108 97
0.054047 -0.206990 -0.613000 168 126 97
0.055287 -0.207328 -0.614000 171 130 98
0.056531 -0.207665 -0.615000 175 133 104
0.057779 -0.208003 -0.616000 182 137 111
0.058934 -0.208003 -0.616000 190 136 103
0.060285 -0.208678 -0.618000 181 136 96
0.061444 -0.208678 -0.618000 172 130 95
-0.003472 -0.209498 -0.617000 143 101 85
-0.002322 -0.210177 -0.619000 144 101 89
-0.001161 -0.210177 -0.619000 145 101 87
0.000000 -0.209498 -0.617000 145 104 85
0.001157 -0.209498 -0.617000 146 108 82
0.002311 -0.209159 -0.616000 149 109 80
0.003467 -0.209159 -0.616000 152 118 81
0.004622 -0.209159 -0.616000 158 113 83
0.005778 -0.209159 -0.616000 164 125 86
0.006933 -0.209159 -0.616000 160 108 89
0.008089 -0.209159 -0.616000 157 107 88
0.009230 -0.208819 -0.615000 156 110 88
0.010383 -0.208819 -0.615000 156 109 97
0.011537 -0.208819 -0.615000 152 108 107
0.012691 -0.208819 -0.615000 149 105 99
0.013844 -0.208819 -0.615000 151 104 92
0.014974 -0.208479 -0.614000 153 103 95
0.016126 -0.208479 -0.614000 154 104 99
0.017249 -0.208140 -0.613000 156 106 101
0.018399 -0.208140 -0.613000 157 108 104
0.019517 -0.207800 -0.612000 158 111 104
0.020631 -0.207461 -0.611000 160 111 105
0.021778 -0.207461 -0.611000 162 111 101
0.022849 -0.206782 -0.609000 160 108 97
0.023991 -0.206782 -0.609000 159 106 98
0.025134 -0.206782 -0.609000 161 104 100
0.026276 -0.206782 -0.609000 164 103 100
0.027419 -0.206782 -0.609000 163 105 100
0.028514 -0.206442 -0.608000 162 108 105
0.029606 -0.206103 -0.607000 161 107 111
0.030694 -0.205763 -0.606000 160 106 106
0.031831 -0.205763 -0.606000 160 108 101
0.032968 -0.205763 -0.606000 160 109 105
0.034048 -0.205424 -0.605000 158 108 109
0.035183 -0.205424 -0.605000 157 108 99
0.036318 -0.205424 -0.605000 158 107 90
0.037453 -0.205424 -0.605000 160 106 87
0.038524 -0.205084 -0.604000 159 106 84
0.039657 -0.205084 -0.604000 158 107 84
0.040790 -0.205084 -0.604000 158 106 84
0.041993 -0.205424 -0.605000 159 106 83
0.043128 -0.205424 -0.605000 158 105 83
0.044262 -0.205424 -0.605000 158 105 75
0.045472 -0.205763 -0.606000 160 106 68
0.046609 -0.205763 -0.606000 162 108 77
0.047825 -0.206103 -0.607000 161 111 87
0.049044 -0.206442 -0.608000 161 115 85
0.050185 -0.206442 -0.608000 163 113 83
0.051579 -0.207461 -0.611000 165 113 92
0.052811 -0.207800 -0.612000 166 119 101
0.054136 -0.208479 -0.614000 167 126 100
0.055287 -0.208479 -0.614000 169 127 99
0.056623 -0.209159 -0.616000 172 136 102
0.057779 -0.209159 -0.616000 176 137 105
0.059030 -0.209498 -0.617000 181 138 98
0.060285 -0.209838 -0.618000 175 132 91
0.061444 -0.209838 -0.618000 169 127 91
-0.002322 -0.211338 -0.619000 143 105 89
-0.001163 -0.211680 -0.620000 143 103 86
0.000000 -0.211680 -0.620000 142 102 82
0.001159 -0.210997 -0.618000 142 103 77
0.002315 -0.210656 -0.617000 144 105 71
0.003472 -0.210656 -0.617000 147 108 77
0.004630 -0.210656 -0.617000 151 112 83
0.005787 -0.210656 -0.617000 156 109 85
0.006945 -0.210656 -0.617000 155 106 88
0.008089 -0.210314 -0.616000 154 106 85
0.009245 -0.210314 -0.616000 154 110 83
0.010400 -0.210314 -0.616000 155 109 90
0.011556 -0.210314 -0.616000 153 108 97
0.012711 -0.210314 -0.616000 152 107 91
0.013867 -0.210314 -0.616000 152 102 86
0.014974 -0.209631 -0.614000 153 102 91
0.016126 -0.209631 -0.614000 155 105 97
0.017277 -0.209631 -0.614000 157 111 100
0.018429 -0.209631 -0.614000 159 117 103
0.019549 -0.209290 -0.613000 162 114 106
0.020631 -0.208607 -0.611000 163 113 110
0.021778 -0.208607 -0.611000 164 113 104
0.022924 -0.208607 -0.611000 165 114 99
0.024070 -0.208607 -0.611000 166 112 103
0.025216 -0.208607 -0.611000 166 110 108
0.026276 -0.207924 -0.609000 167 110 103
0.027419 -0.207924 -0.609000 165 110 99
0.028561 -0.207924 -0.609000 163 109 101
0.029655 -0.207583 -0.608000 161 102 104
0.030745 -0.207241 -0.607000 160 109 100
0.031883 -0.207241 -0.607000 159 109 97
0.032968 -0.206900 -0.606000 159 109 100
0.034104 -0.206900 -0.606000 157 109 102
0.035183 -0.206559 -0.605000 156 109 95
0.036318 -0.206559 -0.605000 158 109 87
0.037453 -0.206559 -0.605000 160 109 84
0.038588 -0.206559 -0.605000 159 109 80
0.039657 -0.206217 -0.604000 158 106 85
0.040790 -0.206217 -0.604000 158 106 90
0.041993 -0.206559 -0.605000 159 106 87
0.043128 -0.206559 -0.605000 159 106 85
0.044336 -0.206900 -0.606000 159 106 79
0.045472 -0.206900 -0.606000 161 109 74
0.046686 -0.207241 -0.607000 164 108 79
0.047904 -0.207583 -0.608000 165 108 85
0.049044 -0.207583 -0.608000 166 112 84
0.050267 -0.207924 -0.609000 166 114 83
0.051663 -0.208948 -0.612000 167 112 88
0.052897 -0.209290 -0.613000 167 122 93
0.054136 -0.209631 -0.614000 167 125 95
0.055377 -0.209973 -0.615000 168 125 97
0.056623 -0.210314 -0.616000 169 127 100
0.057872 -0.210656 -0.617000 170 130 104
0.059126 -0.210997 -0.618000 172 138 100
0.060382 -0.211338 -0.619000 169 124 96
0.061842 -0.212363 -0.622000 166 122 99
0.063009 -0.212363 -0.622000 158 121 102
-0.002356 -0.215589 -0.628000 143 109 90
-0.001176 -0.215246 -0.627000 140 107 85
0.000000 -0.214559 -0.625000 139 104 80
0.001163 -0.212843 -0.620000 137 104 71
0.002322 -0.212500 -0.619000 141 103 63
0.003484 -0.212500 -0.619000 146 103 73
0.004637 -0.212156 -0.618000 149 103 84
0.005797 -0.212156 -0.618000 153 103 85
0.006956 -0.212156 -0.618000 153 106 87
0.008102 -0.211813 -0.617000 153 106 83
0.009260 -0.211813 -0.617000 155 108 79
0.010400 -0.211470 -0.616000 157 110 83
0.011556 -0.211470 -0.616000 155 110 88
0.012711 -0.211470 -0.616000 154 110 84
0.013867 -0.211470 -0.616000 154 104 80
0.014974 -0.210783 -0.614000 154 100 87
0.016126 -0.210783 -0.614000 155 110 95
0.017277 -0.210783 -0.614000 157 116 98
0.018429 -0.210783 -0.614000 159 115 102
0.019549 -0.210440 -0.613000 161 115 109
0.020631 -0.209753 -0.611000 162 115 116
0.021778 -0.209753 -0.611000 164 115 108
0.022924 -0.209753 -0.611000 165 117 101
0.024070 -0.209753 -0.611000 166 120 108
0.025216 -0.209753 -0.611000 169 118 116
0.026362 -0.209753 -0.611000 172 116 107
0.027509 -0.209753 -0.611000 168 111 99
0.028561 -0.209067 -0.609000 164 111 98
0.029703 -0.209067 -0.609000 163 111 97
0.030795 -0.208723 -0.608000 161 112 95
0.031883 -0.208380 -0.607000 160 110 94
0.033022 -0.208380 -0.607000 159 107 95
0.034104 -0.208037 -0.606000 159 106 96
0.035241 -0.208037 -0.606000 159 106 90
0.036318 -0.207693 -0.605000 159 107 85
0.037515 -0.208037 -0.606000 159 109 81
0.038588 -0.207693 -0.605000 158 107 77
0.039723 -0.207693 -0.605000 156 106 87
0.040858 -0.207693 -0.605000 158 106 97
0.042062 -0.208037 -0.606000 159 105 92
0.043199 -0.208037 -0.606000 160 106 87
0.044336 -0.208037 -0.606000 161 107 83
0.045472 -0.208037 -0.606000 162 107 80
0.046686 -0.208380 -0.607000 164 107 82
0.047904 -0.208723 -0.608000 167 109 84
0.049125 -0.209067 -0.609000 170 110 83
0.050267 -0.209067 -0.609000 167 111 83
0.051663 -0.210097 -0.612000 164 112 84
0.052897 -0.210440 -0.613000 163 117 86
0.054136 -0.210783 -0.614000 162 124 90
0.055377 -0.211126 -0.615000 164 122 95
0.056531 -0.211126 -0.615000 166 120 99
0.057779 -0.211470 -0.616000 167 128 104
0.059030 -0.211813 -0.617000 169 138 103
0.060285 -0.212156 -0.618000 165 123 102
0.061643 -0.212843 -0.620000 161 122 107
0.062806 -0.212843 -0.620000 145 117 113
-0.003534 -0.216767 -0.628000 148 116 95
-0.002356 -0.216767 -0.628000 143 118 102
-0.001178 -0.216767 -0.628000 138 109 93
0.000000 -0.216422 -0.627000 135 105 84
0.001172 -0.215732 -0.625000 133 104 77
0.002326 -0.214006 -0.620000 139 98 71
0.003489 -0.214006 -0.620000 145 102 78
0.004645 -0.213661 -0.619000 148 101 85
0.005806 -0.213661 -0.619000 151 105 87
0.006956 -0.213316 -0.618000 152 107 89
0.008115 -0.213316 -0.618000 153 106 87
0.009260 -0.212970 -0.617000 156 106 86
0.010417 -0.212970 -0.617000 159 108 88
0.011556 -0.212625 -0.616000 157 113 91
0.012711 -0.212625 -0.616000 156 108 88
0.013867 -0.212625 -0.616000 155 107 85
0.014974 -0.211935 -0.614000 155 107 90
0.016126 -0.211935 -0.614000 156 115 96
0.017277 -0.211935 -0.614000 157 114 100
0.018429 -0.211935 -0.614000 158 113 104
0.019581 -0.211935 -0.614000 160 114 107
0.020699 -0.211590 -0.613000 162 115 111
0.021813 -0.211245 -0.612000 164 115 105
0.022924 -0.210899 -0.611000 165 119 100
0.024070 -0.210899 -0.611000 166 118 100
0.025216 -0.210899 -0.611000 171 118 100
0.026362 -0.210899 -0.611000 177 116 99
0.027509 -0.210899 -0.611000 171 112 98
0.028561 -0.210209 -0.609000 166 113 97
0.029703 -0.210209 -0.609000 164 114 97
0.030795 -0.209864 -0.608000 163 113 97
0.031883 -0.209519 -0.607000 161 112 97
0.033022 -0.209519 -0.607000 160 108 99
0.034161 -0.209519 -0.607000 161 106 101
0.035241 -0.209174 -0.606000 162 106 93
0.036378 -0.209174 -0.606000 160 105 86
0.037515 -0.209174 -0.606000 159 106 82
0.038652 -0.209174 -0.606000 157 103 79
0.039788 -0.209174 -0.606000 155 107 85
0.040925 -0.209174 -0.606000 157 107 91
0.042062 -0.209174 -0.606000 160 107 88
0.043199 -0.209174 -0.606000 161 107 86
0.044409 -0.209519 -0.607000 163 107 85
0.045548 -0.209519 -0.607000 163 107 84
0.046763 -0.209864 -0.608000 164 107 86
0.047982 -0.210209 -0.609000 169 110 87
0.049125 -0.210209 -0.609000 174 110 86
0.050432 -0.210899 -0.611000 168 108 85
0.051748 -0.211590 -0.613000 162 109 82
0.052984 -0.211935 -0.614000 159 110 80
0.054136 -0.211935 -0.614000 157 108 89
0.055377 -0.212280 -0.615000 160 106 98
0.056623 -0.212625 -0.616000 163 122 98
0.057779 -0.212625 -0.616000 165 127 98
0.059030 -0.212970 -0.617000 167 138 103
0.060285 -0.213316 -0.618000 161 122 108
0.061444 -0.213316 -0.618000 156 122 102
0.062806 -0.214006 -0.620000 133 114 96
-0.003540 -0.218292 -0.629000 113 121 97
-0.002360 -0.218292 -0.629000 129 116 115
-0.001178 -0.217945 -0.628000 145 112 101
0.000000 -0.217945 -0.628000 141 108 88
0.001176 -0.217598 -0.627000 138 104 84
0.002341 -0.216557 -0.624000 142 103 80
0.003500 -0.215863 -0.622000 147 102 83
0.004652 -0.215169 -0.620000 148 104 86
0.005806 -0.214822 -0.619000 150 108 89
0.006967 -0.214822 -0.619000 151 107 92
0.008115 -0.214475 -0.618000 152 106 92
0.009275 -0.214475 -0.618000 154 106 93
0.010417 -0.214128 -0.617000 156 107 94
0.011575 -0.214128 -0.617000 155 107 95
0.012711 -0.213781 -0.616000 155 107 93
0.013867 -0.213781 -0.616000 153 107 91
0.014998 -0.213434 -0.615000 152 108 94
0.016152 -0.213434 -0.615000 154 109 97
0.017305 -0.213434 -0.615000 155 111 101
0.018429 -0.213087 -0.614000 157 113 106
0.019581 -0.213087 -0.614000 159 113 106
0.020699 -0.212740 -0.613000 160 115 107
0.021813 -0.212393 -0.612000 162 115 103
0.022961 -0.212393 -0.612000 163 115 99
0.024109 -0.212393 -0.612000 164 116 91
0.025216 -0.212046 -0.611000 167 116 84
0.026362 -0.212046 -0.611000 170 116 90
0.027509 -0.212046 -0.611000 168 115 97
0.028655 -0.212046 -0.611000 166 115 97
0.029703 -0.211352 -0.609000 164 114 98
0.030846 -0.211352 -0.609000 163 114 99
0.031988 -0.211352 -0.609000 162 110 100
0.033076 -0.211004 -0.608000 161 109 103
0.034217 -0.211004 -0.608000 165 108 106
0.035358 -0.211004 -0.608000 168 107 96
0.036438 -0.210657 -0.607000 164 107 87
0.037577 -0.210657 -0.607000 160 107 84
0.038715 -0.210657 -0.607000 159 107 81
0.039854 -0.210657 -0.607000 157 108 83
0.040993 -0.210657 -0.607000 158 107 86
0.042131 -0.210657 -0.607000 160 107 85
0.043199 -0.210310 -0.606000 163 106 85
0.044409 -0.210657 -0.607000 166 104 87
0.045623 -0.211004 -0.608000 164 105 89
0.046763 -0.211004 -0.608000 162 108 90
0.047982 -0.211352 -0.609000 163 108 91
0.049125 -0.211352 -0.609000 164 112 89
0.050432 -0.212046 -0.611000 163 108 88
0.051663 -0.212393 -0.612000 161 106 81
0.052984 -0.213087 -0.614000 161 107 74
0.054136 -0.213087 -0.614000 160 108 88
0.055377 -0.213434 -0.615000 162 113 102
0.056531 -0.213434 -0.615000 163 125 97
0.057779 -0.213781 -0.616000 166 127 92
0.059030 -0.214128 -0.617000 169 138 103
0.060285 -0.214475 -0.618000 155 124 114
0.061444 -0.214475 -0.618000 142 122 96
-0.003540 -0.219472 -0.629000 79 72 78
-0.002360 -0.219472 -0.629000 115 108 116
-0.001178 -0.219124 -0.628000 152 110 100
0.000000 -0.219124 -0.628000 147 112 84
0.001176 -0.218775 -0.627000 143 105 82
0.002349 -0.218426 -0.626000 146 106 81
0.003512 -0.217728 -0.624000 150 106 83
0.004667 -0.217030 -0.622000 149 107 86
0.005815 -0.216332 -0.620000 149 107 88
0.006978 -0.216332 -0.620000 150 107 91
0.008128 -0.215983 -0.619000 152 107 93
0.009290 -0.215983 -0.619000 153 107 95
0.010434 -0.215634 -0.618000 154 107 96
0.011593 -0.215634 -0.618000 154 107 98
0.012732 -0.215285 -0.617000 154 107 93
0.013867 -0.214936 -0.616000 152 108 88
0.014998 -0.214588 -0.615000 150 107 92
0.016152 -0.214588 -0.615000 152 107 95
0.017305 -0.214588 -0.615000 154 112 100
0.018459 -0.214588 -0.615000 156 114 105
0.019581 -0.214239 -0.614000 158 113 108
0.020733 -0.214239 -0.614000 159 116 111
0.021849 -0.213890 -0.613000 161 114 106
0.022961 -0.213541 -0.612000 162 113 101
0.024109 -0.213541 -0.612000 163 114 96
0.025257 -0.213541 -0.612000 163 120 92
0.026362 -0.213192 -0.611000 164 115 96
0.027509 -0.213192 -0.611000 165 114 100
0.028655 -0.213192 -0.611000 166 115 100
0.029801 -0.213192 -0.611000 165 116 99
0.030846 -0.212494 -0.609000 164 114 99
0.031988 -0.212494 -0.609000 163 109 98
0.033131 -0.212494 -0.609000 163 110 99
0.034273 -0.212494 -0.609000 169 112 100
0.035358 -0.212145 -0.608000 175 106 95
0.036498 -0.212145 -0.608000 168 108 91
0.037577 -0.211796 -0.607000 162 107 86
0.038779 -0.212145 -0.608000 161 107 82
0.039920 -0.212145 -0.608000 160 107 85
0.041060 -0.212145 -0.608000 160 108 88
0.042201 -0.212145 -0.608000 160 107 86
0.043270 -0.211796 -0.607000 164 106 84
0.044409 -0.211796 -0.607000 169 104 88
0.045623 -0.212145 -0.608000 164 103 92
0.046840 -0.212494 -0.609000 160 107 92
0.047982 -0.212494 -0.609000 157 107 93
0.049125 -0.212494 -0.609000 155 107 92
0.050432 -0.213192 -0.611000 158 108 92
0.051663 -0.213541 -0.612000 161 111 86
0.052897 -0.213890 -0.613000 162 114 81
0.054136 -0.214239 -0.614000 164 117 91
0.055377 -0.214588 -0.615000 164 121 102
0.056623 -0.214936 -0.616000 164 126 105
0.057872 -0.215285 -0.617000 167 127 107
0.059030 -0.215285 -0.617000 171 127 100
0.060285 -0.215634 -0.618000 150 127 92
0.061444 -0.215634 -0.618000 129 91 66
-0.003540 -0.220652 -0.629000 40 6 59
-0.002356 -0.220302 -0.628000 84 70 117
-0.001178 -0.220302 -0.628000 127 119 99
0.000000 -0.220302 -0.628000 138 113 81
0.001178 -0.220302 -0.628000 149 107 81
0.002352 -0.219951 -0.627000 151 108 82
0.003517 -0.219249 -0.625000 152 110 84
0.004682 -0.218898 -0.624000 151 106 86
0.005834 -0.218197 -0.622000 149 108 88
0.006978 -0.217495 -0.620000 151 107 91
0.008142 -0.217495 -0.620000 152 108 94
0.009290 -0.217144 -0.619000 154 105 97
0.010451 -0.217144 -0.619000 156 104 99
0.011612 -0.217144 -0.619000 156 104 102
0.012753 -0.216794 -0.618000 155 104 94
0.013889 -0.216443 -0.617000 153 106 86
0.015022 -0.216092 -0.616000 151 106 90
0.016152 -0.215741 -0.615000 152 110 94
0.017334 -0.216092 -0.616000 153 114 99
0.018459 -0.215741 -0.615000 155 113 105
0.019613 -0.215741 -0.615000 157 113 110
0.020733 -0.215390 -0.614000 158 112 115
0.021849 -0.215040 -0.613000 160 112 109
0.022961 -0.214689 -0.612000 160 112 103
0.024109 -0.214689 -0.612000 161 112 102
0.025257 -0.214689 -0.612000 162 113 101
0.026406 -0.214689 -0.612000 162 114 102
0.027509 -0.214338 -0.611000 163 113 104
0.028655 -0.214338 -0.611000 165 111 102
0.029801 -0.214338 -0.611000 164 115 101
0.030846 -0.213636 -0.609000 164 114 99
0.031988 -0.213636 -0.609000 162 112 97
0.033131 -0.213636 -0.609000 161 111 95
0.034273 -0.213636 -0.609000 163 108 94
0.035358 -0.213286 -0.608000 166 106 95
0.036498 -0.213286 -0.608000 160 105 96
0.037639 -0.213286 -0.608000 153 100 89
0.038779 -0.213286 -0.608000 155 101 83
0.039920 -0.213286 -0.608000 156 102 87
0.041128 -0.213636 -0.609000 155 108 91
0.042201 -0.213286 -0.608000 153 108 87
0.043341 -0.213286 -0.608000 158 109 83
0.044482 -0.213286 -0.608000 163 110 89
0.045698 -0.213636 -0.609000 161 108 95
0.046840 -0.213636 -0.609000 160 106 95
0.047982 -0.213636 -0.609000 161 108 96
0.049125 -0.213636 -0.609000 162 110 96
0.050432 -0.214338 -0.611000 161 110 96
0.051663 -0.214689 -0.612000 161 118 92
0.052897 -0.215040 -0.613000 161 114 88
0.054136 -0.215390 -0.614000 161 116 95
0.055377 -0.215741 -0.615000 163 121 103
0.056623 -0.216092 -0.616000 166 131 113
0.057872 -0.216443 -0.617000 157 126 123
0.059030 -0.216443 -0.617000 149 109 97
0.060187 -0.216443 -0.617000 120 85 71
0.061345 -0.216443 -0.617000 92 61 36
-0.003540 -0.221832 -0.629000 2 3 45
-0.002356 -0.221480 -0.628000 52 32 69
-0.001178 -0.221480 -0.628000 103 86 84
0.000000 -0.221480 -0.628000 129 114 100
0.001178 -0.221480 -0.628000 156 112 93
0.002352 -0.221127 -0.627000 155 110 86
0.003517 -0.220422 -0.625000 155 108 89
0.004682 -0.220069 -0.624000 152 106 91
0.005844 -0.219716 -0.623000 150 108 93
0.007001 -0.219364 -0.622000 151 107 96
0.008168 -0.219364 -0.622000 153 105 99
0.009305 -0.218658 -0.620000 156 103 102
0.010468 -0.218658 -0.620000 159 103 106
0.011612 -0.218306 -0.619000 158 104 111
0.012753 -0.217953 -0.618000 157 105 94
0.013912 -0.217953 -0.618000 155 106 77
0.015022 -0.217248 -0.616000 153 109 88
0.016178 -0.217248 -0.616000 153 115 99
0.017334 -0.217248 -0.616000 153 114 102
0.018489 -0.217248 -0.616000 155 113 105
0.019613 -0.216895 -0.615000 157 113 109
0.020767 -0.216895 -0.615000 158 113 113
0.021920 -0.216895 -0.615000 159 114 108
0.023036 -0.216542 -0.614000 159 115 104
0.024149 -0.216190 -0.613000 160 115 109
0.025299 -0.216190 -0.613000 160 116 114
0.026406 -0.215837 -0.612000 161 114 112
0.027509 -0.215484 -0.611000 162 112 111
0.028655 -0.215484 -0.611000 164 113 108
0.029801 -0.215484 -0.611000 164 115 105
0.030846 -0.214779 -0.609000 164 114 101
0.031988 -0.214779 -0.609000 161 113 97
0.033131 -0.214779 -0.609000 159 111 97
0.034273 -0.214779 -0.609000 158 105 96
0.035416 -0.214779 -0.609000 158 105 97
0.036558 -0.214779 -0.609000 151 103 97
0.037701 -0.214779 -0.609000 145 102 92
0.038843 -0.214779 -0.609000 149 91 86
0.039985 -0.214779 -0.609000 153 108 88
0.041128 -0.214779 -0.609000 150 109 91
0.042270 -0.214779 -0.609000 147 110 89
0.043413 -0.214779 -0.609000 152 111 88
0.044555 -0.214779 -0.609000 158 111 95
0.045848 -0.215484 -0.611000 159 115 102
0.046994 -0.215484 -0.611000 160 114 98
0.048140 -0.215484 -0.611000 164 113 93
0.049286 -0.215484 -0.611000 169 113 94
0.050515 -0.215837 -0.612000 165 113 94
0.051748 -0.216190 -0.613000 161 114 93
0.052984 -0.216542 -0.614000 159 115 92
0.054136 -0.216542 -0.614000 158 117 100
0.055377 -0.216895 -0.615000 163 122 108
0.056531 -0.216895 -0.615000 168 130 96
0.057779 -0.217248 -0.616000 148 125 84
0.058934 -0.217248 -0.616000 128 79 62
0.060187 -0.217600 -0.617000 91 56 40
0.061345 -0.217600 -0.617000 55 36 30
-0.001178 -0.222658 -0.628000 52 54 70
0.000000 -0.223012 -0.629000 99 96 120
0.001178 -0.222658 -0.628000 146 118 105
0.002352 -0.222303 -0.627000 149 113 91
0.003529 -0.222303 -0.627000 152 105 94
0.004690 -0.221594 -0.625000 150 107 97
0.005853 -0.221240 -0.624000 148 108 99
0.007012 -0.220885 -0.623000 149 106 101
0.008168 -0.220530 -0.622000 150 103 104
0.009335 -0.220530 -0.622000 153 102 107
0.010501 -0.220530 -0.622000 157 101 113
0.011631 -0.219821 -0.620000 156 106 120
0.012773 -0.219467 -0.619000 155 107 94
0.013934 -0.219467 -0.619000 153 109 69
0.015047 -0.218758 -0.617000 151 112 86
0.016204 -0.218758 -0.617000 152 113 104
0.017362 -0.218758 -0.617000 153 114 104
0.018489 -0.218403 -0.616000 155 113 105
0.019645 -0.218403 -0.616000 156 112 108
0.020800 -0.218403 -0.616000 156 113 112
0.021920 -0.218049 -0.615000 156 118 108
0.023036 -0.217694 -0.614000 157 119 105
0.024188 -0.217694 -0.614000 158 121 116
0.025299 -0.217339 -0.613000 159 120 128
0.026449 -0.217339 -0.613000 160 120 123
0.027554 -0.216985 -0.612000 162 117 118
0.028655 -0.216630 -0.611000 164 115 113
0.029801 -0.216630 -0.611000 165 116 109
0.030947 -0.216630 -0.611000 167 117 103
0.032093 -0.216630 -0.611000 163 115 98
0.033240 -0.216630 -0.611000 160 111 98
0.034273 -0.215921 -0.609000 159 109 99
0.035416 -0.215921 -0.609000 159 108 99
0.036558 -0.215921 -0.609000 156 106 99
0.037701 -0.215921 -0.609000 154 104 94
0.038843 -0.215921 -0.609000 155 109 90
0.039985 -0.215921 -0.609000 156 114 90
0.041263 -0.216630 -0.611000 155 113 91
0.042270 -0.215921 -0.609000 154 113 92
0.043413 -0.215921 -0.609000 157 112 93
0.044702 -0.216630 -0.611000 161 112 101
0.045848 -0.216630 -0.611000 160 113 110
0.046994 -0.216630 -0.611000 158 114 100
0.048140 -0.216630 -0.611000 161 113 91
0.049286 -0.216630 -0.611000 164 113 92
0.050598 -0.217339 -0.613000 160 113 93
0.051832 -0.217694 -0.614000 157 113 95
0.052984 -0.217694 -0.614000 158 115 97
0.054224 -0.218049 -0.615000 158 118 105
0.055377 -0.218049 -0.615000 157 123 114
0.056531 -0.218049 -0.615000 155 129 80
0.057779 -0.218403 -0.616000 113 93 46
0.058934 -0.218403 -0.616000 71 49 27
0.060090 -0.218403 -0.616000 60 28 9
0.061345 -0.218758 -0.617000 49 7 24
0.000000 -0.224192 -0.629000 69 78 100
0.001178 -0.223836 -0.628000 137 109 98
0.002356 -0.223836 -0.628000 143 117 97
0.003529 -0.223479 -0.627000 149 111 100
0.004697 -0.223123 -0.626000 147 108 103
0.005862 -0.222767 -0.625000 146 108 102
0.007035 -0.222767 -0.625000 146 106 101
0.008194 -0.222410 -0.624000 147 107 101
0.009350 -0.222054 -0.623000 151 108 101
0.010518 -0.222054 -0.623000 155 108 106
0.011668 -0.221697 -0.622000 154 108 110
0.012794 -0.220984 -0.620000 154 110 98
0.013934 -0.220628 -0.619000 151 112 86
0.015071 -0.220272 -0.618000 149 112 95
0.016230 -0.220272 -0.618000 151 111 105
0.017390 -0.220272 -0.618000 154 113 102
0.018519 -0.219915 -0.617000 155 116 100
0.019645 -0.219559 -0.616000 156 111 105
0.020800 -0.219559 -0.616000 154 113 111
0.021920 -0.219202 -0.615000 153 115 108
0.023036 -0.218846 -0.614000 155 121 106
0.024188 -0.218846 -0.614000 157 121 111
0.025299 -0.218489 -0.613000 158 122 116
0.026449 -0.218489 -0.613000 160 120 113
0.027554 -0.218133 -0.612000 162 119 110
0.028655 -0.217777 -0.611000 164 119 108
0.029801 -0.217777 -0.611000 167 120 106
0.030947 -0.217777 -0.611000 170 118 101
0.032093 -0.217777 -0.611000 166 117 97
0.033240 -0.217777 -0.611000 162 113 99
0.034386 -0.217777 -0.611000 161 110 101
0.035532 -0.217777 -0.611000 160 109 100
0.036678 -0.217777 -0.611000 161 109 99
0.037824 -0.217777 -0.611000 163 109 98
0.038971 -0.217777 -0.611000 161 110 98
0.040117 -0.217777 -0.611000 159 112 98
0.041263 -0.217777 -0.611000 160 114 99
0.042409 -0.217777 -0.611000 161 113 97
0.043555 -0.217777 -0.611000 163 114 94
0.044702 -0.217777 -0.611000 165 113 99
0.045848 -0.217777 -0.611000 161 112 103
0.046994 -0.217777 -0.611000 157 112 97
0.048219 -0.218133 -0.612000 158 113 92
0.049367 -0.218133 -0.612000 159 114 97
0.050598 -0.218489 -0.613000 156 117 102
0.051832 -0.218846 -0.614000 154 116 100
0.052984 -0.218846 -0.614000 156 115 99
0.054224 -0.219202 -0.615000 159 119 96
0.055377 -0.219202 -0.615000 151 106 94
0.056531 -0.219202 -0.615000 143 84 58
0.057685 -0.219202 -0.615000 78 62 23
0.058839 -0.219202 -0.615000 14 26 24
0.060090 -0.219559 -0.616000 29 9 25
0.079309 -0.224905 -0.631000 25 21 13
0.080620 -0.225262 -0.632000 27 20 6
0.082064 -0.225974 -0.634000 30 19 9
0.083385 -0.226331 -0.635000 34 19 13
0.084576 -0.226331 -0.635000 38 36 47
0.085768 -0.226331 -0.635000 55 90 82
0.000000 -0.225372 -0.629000 48 45 80
0.001180 -0.225372 -0.629000 94 100 92
0.002356 -0.225014 -0.628000 122 117 104
0.003534 -0.225014 -0.628000 150 114 107
0.004697 -0.224297 -0.626000 147 111 110
0.005872 -0.224297 -0.626000 145 109 105
0.007035 -0.223939 -0.625000 147 108 101
0.008194 -0.223581 -0.624000 149 108 98
0.009365 -0.223581 -0.624000 152 110 96
0.010535 -0.223581 -0.624000 155 113 98
0.011687 -0.223222 -0.623000 155 113 101
0.012835 -0.222864 -0.622000 155 114 102
0.013957 -0.222148 -0.620000 153 113 103
0.015096 -0.221789 -0.619000 151 113 104
0.016230 -0.221431 -0.618000 153 113 106
0.017390 -0.221431 -0.618000 155 113 100
0.018519 -0.221073 -0.617000 155 111 95
0.019645 -0.220714 -0.616000 156 110 102
0.020800 -0.220714 -0.616000 155 110 110
0.021956 -0.220714 -0.616000 154 110 108
0.023074 -0.220356 -0.615000 155 119 107
0.024188 -0.219998 -0.614000 156 121 106
0.025340 -0.219998 -0.614000 157 121 105
0.026449 -0.219639 -0.613000 159 121 103
0.027554 -0.219281 -0.612000 160 122 102
0.028702 -0.219281 -0.612000 162 124 102
0.029850 -0.219281 -0.612000 164 124 103
0.030947 -0.218923 -0.611000 166 124 100
0.032146 -0.219281 -0.612000 164 119 97
0.033294 -0.219281 -0.612000 161 116 100
0.034386 -0.218923 -0.611000 160 113 104
0.035532 -0.218923 -0.611000 159 109 101
0.036678 -0.218923 -0.611000 160 109 99
0.037824 -0.218923 -0.611000 161 107 102
0.038971 -0.218923 -0.611000 160 110 106
0.040117 -0.218923 -0.611000 159 108 107
0.041263 -0.218923 -0.611000 159 113 108
0.042409 -0.218923 -0.611000 160 113 102
0.043627 -0.219281 -0.612000 161 115 96
0.044775 -0.219281 -0.612000 161 116 96
0.045923 -0.219281 -0.612000 158 113 97
0.047148 -0.219639 -0.613000 154 111 95
0.048298 -0.219639 -0.613000 154 113 93
0.049448 -0.219639 -0.613000 154 116 102
0.050680 -0.219998 -0.614000 153 113 112
0.051832 -0.219998 -0.614000 153 110 106
0.053070 -0.220356 -0.615000 149 115 101
0.054224 -0.220356 -0.615000 145 121 87
0.055377 -0.220356 -0.615000 116 92 74
0.056531 -0.220356 -0.615000 88 64 37
0.057685 -0.220356 -0.615000 59 32 1
0.058839 -0.220356 -0.615000 29 3 21
0.079434 -0.226447 -0.632000 32 26 17
0.080748 -0.226805 -0.633000 33 31 9
0.082064 -0.227164 -0.634000 34 36 16
0.083385 -0.227522 -0.635000 38 39 23
0.084576 -0.227522 -0.635000 42 42 60
0.085768 -0.227522 -0.635000 50 79 97
0.001180 -0.226552 -0.629000 51 58 68
0.002360 -0.226552 -0.629000 101 117 96
0.003529 -0.225832 -0.627000 152 115 100
0.004697 -0.225472 -0.626000 148 113 105
0.005872 -0.225472 -0.626000 144 111 100
0.007035 -0.225111 -0.625000 147 110 95
0.008207 -0.225111 -0.625000 151 109 96
0.009365 -0.224751 -0.624000 153 114 98
0.010535 -0.224751 -0.624000 155 114 100
0.011706 -0.224751 -0.624000 156 114 103
0.012856 -0.224391 -0.623000 157 113 107
0.014002 -0.224031 -0.622000 155 113 112
0.015120 -0.223311 -0.620000 153 113 108
0.016257 -0.222950 -0.619000 155 113 105
0.017418 -0.222950 -0.619000 157 114 102
0.018549 -0.222590 -0.618000 156 110 98
0.019708 -0.222590 -0.618000 156 110 108
0.020868 -0.222590 -0.618000 155 111 118
0.021992 -0.222230 -0.617000 155 112 110
0.023111 -0.221870 -0.616000 155 118 103
0.024228 -0.221510 -0.615000 155 120 99
0.025340 -0.221150 -0.614000 156 123 95
0.026492 -0.221150 -0.614000 158 124 97
0.027599 -0.220789 -0.613000 159 125 100
0.028702 -0.220429 -0.612000 160 125 101
0.029850 -0.220429 -0.612000 161 125 103
0.030998 -0.220429 -0.612000 163 123 102
0.032146 -0.220429 -0.612000 162 122 102
0.033294 -0.220429 -0.612000 161 118 107
0.034386 -0.220069 -0.611000 159 116 112
0.035532 -0.220069 -0.611000 158 110 106
0.036678 -0.220069 -0.611000 158 109 100
0.037824 -0.220069 -0.611000 159 109 103
0.038971 -0.220069 -0.611000 159 110 106
0.040117 -0.220069 -0.611000 159 114 109
0.041331 -0.220429 -0.612000 159 119 111
0.042479 -0.220429 -0.612000 160 117 98
0.043627 -0.220429 -0.612000 159 116 85
0.044848 -0.220789 -0.613000 158 115 90
0.045998 -0.220789 -0.613000 155 115 95
0.047148 -0.220789 -0.613000 152 114 93
0.048377 -0.221150 -0.614000 151 114 90
0.049528 -0.221150 -0.614000 150 114 98
0.050763 -0.221510 -0.615000 151 103 105
0.051916 -0.221510 -0.615000 152 102 107
0.053070 -0.221510 -0.615000 141 101 109
0.054224 -0.221510 -0.615000 131 87 75
0.055377 -0.221510 -0.615000 82 30 41
0.056531 -0.221510 -0.615000 34 16 29
0.057685 -0.221510 -0.615000 39 3 17
0.079434 -0.227633 -0.632000 40 28 24
0.080748 -0.227993 -0.633000 39 37 18
0.082064 -0.228353 -0.634000 39 39 18
0.083385 -0.228713 -0.635000 43 41 18
0.084576 -0.228713 -0.635000 47 50 44
0.085768 -0.228713 -0.635000 46 69 71
0.001180 -0.227732 -0.629000 26 16 44
0.002360 -0.227732 -0.629000 72 59 88
0.003529 -0.227008 -0.627000 118 102 94
0.004697 -0.226646 -0.626000 132 115 101
0.005872 -0.226646 -0.626000 146 123 95
0.007046 -0.226646 -0.626000 146 115 89
0.008207 -0.226284 -0.625000 147 111 94
0.009380 -0.226284 -0.625000 151 111 100
0.010535 -0.225922 -0.624000 154 111 102
0.011706 -0.225922 -0.624000 157 111 105
0.012876 -0.225922 -0.624000 161 112 113
0.014024 -0.225560 -0.623000 157 112 121
0.015120 -0.224474 -0.620000 154 112 113
0.016257 -0.224112 -0.619000 155 114 105
0.017418 -0.224112 -0.619000 155 115 103
0.018549 -0.223750 -0.618000 155 113 102
0.019708 -0.223750 -0.618000 154 111 114
0.020868 -0.223750 -0.618000 154 112 126
0.021992 -0.223387 -0.617000 154 114 113
0.023149 -0.223387 -0.617000 153 116 100
0.024267 -0.223025 -0.616000 153 119 92
0.025381 -0.222663 -0.615000 154 121 85
0.026492 -0.222301 -0.614000 156 124 91
0.027599 -0.221939 -0.613000 155 122 98
0.028749 -0.221939 -0.613000 154 121 101
0.029899 -0.221939 -0.613000 157 119 104
0.031049 -0.221939 -0.613000 160 118 105
0.032198 -0.221939 -0.613000 160 119 107
0.033294 -0.221577 -0.612000 160 120 114
0.034442 -0.221577 -0.612000 156 117 121
0.035590 -0.221577 -0.612000 152 112 111
0.036738 -0.221577 -0.612000 156 109 101
0.037824 -0.221215 -0.611000 160 110 104
0.039034 -0.221577 -0.612000 158 113 107
0.040182 -0.221577 -0.612000 157 122 111
0.041331 -0.221577 -0.612000 157 121 115
0.042479 -0.221577 -0.612000 158 120 94
0.043698 -0.221939 -0.613000 156 114 74
0.044848 -0.221939 -0.613000 155 108 84
0.045998 -0.221939 -0.613000 151 113 94
0.047148 -0.221939 -0.613000 148 115 91
0.048377 -0.222301 -0.614000 148 114 88
0.049528 -0.222301 -0.614000 149 112 93
0.050763 -0.222663 -0.615000 143 112 99
0.051916 -0.222663 -0.615000 137 113 108
0.053070 -0.222663 -0.615000 105 73 118
0.054312 -0.223025 -0.616000 72 53 63
0.055468 -0.223025 -0.616000 54 19 9
0.056531 -0.222663 -0.615000 37 1 21
0.079560 -0.229180 -0.633000 36 30 30
0.080875 -0.229542 -0.634000 34 27 28
0.082194 -0.229904 -0.635000 33 24 21
0.083385 -0.229904 -0.635000 34 28 14
0.084576 -0.229904 -0.635000 35 58 29
0.004697 -0.227820 -0.626000 116 117 107
0.005872 -0.227820 -0.626000 148 121 97
0.007046 -0.227820 -0.626000 146 120 87
0.008220 -0.227820 -0.626000 144 110 93
0.009380 -0.227456 -0.625000 149 108 99
0.010552 -0.227456 -0.625000 154 111 102
0.011725 -0.227456 -0.625000 159 110 105
0.012876 -0.227092 -0.624000 165 111 105
0.014047 -0.227092 -0.624000 160 113 106
0.015120 -0.225637 -0.620000 156 113 104
0.016257 -0.225273 -0.619000 155 115 102
0.017418 -0.225273 -0.619000 154 116 102
0.018549 -0.224909 -0.618000 153 118 102
0.019708 -0.224909 -0.618000 153 113 109
0.020868 -0.224909 -0.618000 153 113 115
0.021992 -0.224545 -0.617000 153 114 108
0.023149 -0.224545 -0.617000 152 114 102
0.024267 -0.224181 -0.616000 151 114 97
0.025381 -0.223817 -0.615000 153 115 93
0.026492 -0.223453 -0.614000 155 117 101
0.027644 -0.223453 -0.614000 152 120 110
0.028795 -0.223453 -0.614000 149 119 108
0.029947 -0.223453 -0.614000 153 118 106
0.031049 -0.223089 -0.613000 157 116 102
0.032198 -0.223089 -0.613000 158 115 98
0.033348 -0.223089 -0.613000 160 119 107
0.034498 -0.223089 -0.613000 153 118 116
0.035648 -0.223089 -0.613000 147 112 106
0.036798 -0.223089 -0.613000 154 110 96
0.037886 -0.222725 -0.612000 161 112 99
0.039034 -0.222725 -0.612000 158 116 102
0.040182 -0.222725 -0.612000 156 114 107
0.041331 -0.222725 -0.612000 156 113 113
0.042479 -0.222725 -0.612000 156 112 98
0.043698 -0.223089 -0.613000 154 112 83
0.044848 -0.223089 -0.613000 152 112 87
0.045923 -0.222725 -0.612000 148 112 91
0.047148 -0.223089 -0.613000 145 116 90
0.048377 -0.223453 -0.614000 146 117 89
0.049528 -0.223453 -0.614000 148 107 81
0.050763 -0.223817 -0.615000 135 95 74
0.051916 -0.223817 -0.615000 123 70 67
0.053156 -0.224181 -0.616000 68 46 59
0.054312 -0.224181 -0.616000 14 27 37
0.055468 -0.224181 -0.616000 27 8 16
0.079560 -0.230368 -0.633000 32 27 34
0.080875 -0.230732 -0.634000 29 24 23
0.082194 -0.231096 -0.635000 27 20 20
0.083385 -0.231096 -0.635000 25 15 18
0.084576 -0.231096 -0.635000 24 11 25
0.004697 -0.228995 -0.626000 87 94 113
0.005881 -0.229360 -0.627000 131 126 99
0.007057 -0.229360 -0.627000 139 120 85
0.008220 -0.228995 -0.626000 147 110 91
0.009380 -0.228629 -0.625000 149 111 98
0.010552 -0.228629 -0.625000 152 112 101
0.011725 -0.228629 -0.625000 156 111 105
0.012897 -0.228629 -0.625000 160 111 98
0.014047 -0.228263 -0.624000 157 113 91
0.015169 -0.227531 -0.622000 154 114 95
0.016283 -0.226800 -0.620000 153 116 99
0.017418 -0.226434 -0.619000 152 118 101
0.018579 -0.226434 -0.619000 149 119 103
0.019708 -0.226068 -0.618000 147 115 104
0.020868 -0.226068 -0.618000 151 115 105
0.022027 -0.226068 -0.618000 155 115 104
0.023149 -0.225702 -0.617000 153 114 104
0.024228 -0.224971 -0.615000 152 114 103
0.025381 -0.224971 -0.615000 154 115 102
0.026492 -0.224605 -0.614000 156 117 112
0.027644 -0.224605 -0.614000 154 117 122
0.028795 -0.224605 -0.614000 151 118 115
0.029947 -0.224605 -0.614000 153 117 109
0.031099 -0.224605 -0.614000 155 114 99
0.032251 -0.224605 -0.614000 159 117 90
0.033403 -0.224605 -0.614000 162 119 101
0.034498 -0.224239 -0.613000 156 117 112
0.035648 -0.224239 -0.613000 150 113 101
0.036798 -0.224239 -0.613000 154 113 91
0.037948 -0.224239 -0.613000 158 114 94
0.039098 -0.224239 -0.613000 156 114 97
0.040182 -0.223873 -0.612000 155 115 104
0.041398 -0.224239 -0.613000 154 112 111
0.042548 -0.224239 -0.613000 153 107 102
0.043698 -0.224239 -0.613000 152 109 93
0.044848 -0.224239 -0.613000 150 110 90
0.045998 -0.224239 -0.613000 147 112 88
0.047148 -0.224239 -0.613000 144 118 89
0.048298 -0.224239 -0.613000 135 110 90
0.049528 -0.224605 -0.614000 127 103 70
0.050763 -0.224971 -0.615000 96 75 50
0.051916 -0.224971 -0.615000 65 48 25
0.053156 -0.225337 -0.616000 44 27 1
0.054312 -0.225337 -0.616000 23 3 12
0.063556 -0.225337 -0.616000 24 28 15
0.064712 -0.225337 -0.616000 21 26 19
0.080875 -0.231921 -0.634000 29 22 19
0.082194 -0.232287 -0.635000 26 17 20
0.083385 -0.232287 -0.635000 24 14 22
0.084576 -0.232287 -0.635000 23 12 22
0.005881 -0.230537 -0.627000 115 108 79
0.007068 -0.230904 -0.628000 133 121 102
0.008233 -0.230537 -0.627000 151 109 99
0.009395 -0.230169 -0.626000 150 117 97
0.010552 -0.229801 -0.625000 150 117 103
0.011725 -0.229801 -0.625000 152 118 110
0.012897 -0.229801 -0.625000 155 114 103
0.014070 -0.229801 -0.625000 154 114 95
0.015169 -0.228698 -0.622000 153 115 98
0.016283 -0.227963 -0.620000 151 117 100
0.017446 -0.227963 -0.620000 150 117 101
0.018579 -0.227595 -0.619000 146 120 102
0.019740 -0.227595 -0.619000 142 118 101
0.020868 -0.227228 -0.618000 149 117 101
0.022027 -0.227228 -0.618000 157 116 101
0.023149 -0.226860 -0.617000 155 115 102
0.024267 -0.226492 -0.616000 154 115 104
0.025381 -0.226124 -0.615000 156 115 106
0.026492 -0.225757 -0.614000 158 116 113
0.027644 -0.225757 -0.614000 156 117 120
0.028795 -0.225757 -0.614000 154 116 115
0.029947 -0.225757 -0.614000 154 116 110
0.031099 -0.225757 -0.614000 154 114 105
0.032251 -0.225757 -0.614000 159 119 100
0.033403 -0.225757 -0.614000 165 118 109
0.034555 -0.225757 -0.614000 159 117 118
0.035706 -0.225757 -0.614000 154 116 108
0.036858 -0.225757 -0.614000 154 116 98
0.037948 -0.225389 -0.613000 155 115 98
0.039098 -0.225389 -0.613000 155 114 99
0.040182 -0.225021 -0.612000 155 112 99
0.041398 -0.225389 -0.613000 153 111 100
0.042548 -0.225389 -0.613000 151 110 93
0.043698 -0.225389 -0.613000 150 109 87
0.044848 -0.225389 -0.613000 149 111 90
0.045998 -0.225389 -0.613000 146 113 92
0.047148 -0.225389 -0.613000 143 105 69
0.048298 -0.225389 -0.613000 124 97 45
0.049528 -0.225757 -0.614000 106 55 40
0.050763 -0.226124 -0.615000 57 14 35
0.051916 -0.226124 -0.615000 8 11 21
0.063556 -0.226492 -0.616000 26 28 10
0.064607 -0.226124 -0.615000 24 30 11
0.065974 -0.226860 -0.617000 23 28 11
0.067241 -0.227228 -0.618000 22 26 11
0.068400 -0.227228 -0.618000 21 21 9
0.069559 -0.227228 -0.618000 23 20 7
0.081003 -0.233478 -0.635000 28 20 10
0.082194 -0.233478 -0.635000 25 16 13
0.083385 -0.233478 -0.635000 24 14 17
0.084576 -0.233478 -0.635000 23 13 14
0.007068 -0.232082 -0.628000 100 99 120
0.008247 -0.232082 -0.628000 142 108 108
0.009395 -0.231343 -0.626000 143 116 96
0.010569 -0.231343 -0.626000 144 115 106
0.011743 -0.231343 -0.626000 147 115 116
0.012897 -0.230974 -0.625000 150 115 108
0.014070 -0.230974 -0.625000 151 116 100
0.015217 -0.230604 -0.624000 152 118 101
0.016336 -0.229865 -0.622000 151 117 102
0.017446 -0.229126 -0.620000 150 117 101
0.018609 -0.229126 -0.620000 148 120 101
0.019740 -0.228756 -0.619000 146 120 99
0.020902 -0.228756 -0.619000 149 120 98
0.022027 -0.228387 -0.618000 153 120 99
0.023149 -0.228017 -0.617000 152 116 100
0.024267 -0.227648 -0.616000 152 112 105
0.025381 -0.227278 -0.615000 153 115 111
0.026492 -0.226909 -0.614000 154 111 114
0.027644 -0.226909 -0.614000 153 116 118
0.028795 -0.226909 -0.614000 153 114 115
0.029947 -0.226909 -0.614000 151 114 112
0.031099 -0.226909 -0.614000 150 114 111
0.032251 -0.226909 -0.614000 155 114 110
0.033403 -0.226909 -0.614000 160 114 117
0.034555 -0.226909 -0.614000 156 116 124
0.035706 -0.226909 -0.614000 153 116 114
0.036858 -0.226909 -0.614000 153 114 105
0.038010 -0.226909 -0.614000 154 111 103
0.039098 -0.226539 -0.613000 153 111 101
0.040248 -0.226539 -0.613000 153 111 95
0.041398 -0.226539 -0.613000 151 111 89
0.042548 -0.226539 -0.613000 149 111 85
0.043698 -0.226539 -0.613000 141 105 82
0.044848 -0.226539 -0.613000 133 99 89
0.045923 -0.226169 -0.612000 121 95 97
0.047148 -0.226539 -0.613000 109 92 49
0.048298 -0.226539 -0.613000 82 46 1
0.049448 -0.226539 -0.613000 55 1 11
0.050598 -0.226539 -0.613000 38 14 21
0.051916 -0.227278 -0.615000 22 5 17
0.063556 -0.227648 -0.616000 23 21 6
0.064607 -0.227278 -0.615000 24 18 4
0.065974 -0.228017 -0.617000 24 15 7
0.067241 -0.228387 -0.618000 20 16 11
0.068400 -0.228387 -0.618000 16 17 11
0.069672 -0.228756 -0.619000 22 18 12
0.070833 -0.228756 -0.619000 28 20 19
0.080188 -0.235778 -0.638000 28 23 7
0.081130 -0.235039 -0.636000 22 18 1
0.082582 -0.235778 -0.638000 17 16 7
0.083779 -0.235778 -0.638000 19 17 13
0.084709 -0.235039 -0.636000 22 19 7
0.085902 -0.235039 -0.636000 18 20 2
0.008247 -0.233261 -0.628000 134 102 94
0.009410 -0.232889 -0.627000 136 116 98
0.010586 -0.232889 -0.627000 138 114 105
0.011743 -0.232518 -0.626000 142 114 112
0.012918 -0.232518 -0.626000 146 116 108
0.014092 -0.232518 -0.626000 148 118 104
0.015242 -0.232146 -0.625000 151 117 104
0.016336 -0.231032 -0.622000 151 116 103
0.017446 -0.230289 -0.620000 151 116 101
0.018609 -0.230289 -0.620000 150 121 99
0.019740 -0.229918 -0.619000 150 121 100
0.020902 -0.229918 -0.619000 150 121 102
0.022027 -0.229546 -0.618000 150 119 99
0.023186 -0.229546 -0.618000 150 117 96
0.024267 -0.228803 -0.616000 150 116 100
0.025381 -0.228432 -0.615000 150 115 104
0.026492 -0.228060 -0.614000 150 115 107
0.027644 -0.228060 -0.614000 151 115 110
0.028795 -0.228060 -0.614000 152 113 108
0.029947 -0.228060 -0.614000 149 111 106
0.031099 -0.228060 -0.614000 146 112 105
0.032251 -0.228060 -0.614000 150 113 103
0.033403 -0.228060 -0.614000 155 116 108
0.034555 -0.228060 -0.614000 153 119 112
0.035765 -0.228432 -0.615000 152 116 107
0.036858 -0.228060 -0.614000 152 113 101
0.038010 -0.228060 -0.614000 153 110 99
0.039162 -0.228060 -0.614000 152 111 98
0.040248 -0.227689 -0.613000 152 112 89
0.041398 -0.227689 -0.613000 150 113 81
0.042548 -0.227689 -0.613000 148 107 75
0.043698 -0.227689 -0.613000 132 102 69
0.044848 -0.227689 -0.613000 117 84 63
0.045923 -0.227318 -0.612000 96 66 58
0.047071 -0.227318 -0.612000 75 33 42
0.048298 -0.227689 -0.613000 39 1 25
0.049448 -0.227689 -0.613000 4 5 23
0.050598 -0.227689 -0.613000 20 14 20
0.061245 -0.228803 -0.616000 26 22 12
0.062502 -0.229175 -0.617000 23 23 12
0.063660 -0.229175 -0.617000 21 20 16
0.064712 -0.228803 -0.616000 23 19 20
0.065974 -0.229175 -0.617000 26 19 15
0.067241 -0.229546 -0.618000 18 19 11
0.068511 -0.229918 -0.619000 11 16 15
0.069672 -0.229918 -0.619000 21 13 18
0.070948 -0.230289 -0.620000 31 18 22
0.072460 -0.231403 -0.623000 32 21 26
0.073747 -0.231775 -0.624000 34 24 23
0.074797 -0.231403 -0.623000 34 30 20
0.075966 -0.231403 -0.623000 34 25 14
0.080188 -0.236975 -0.638000 24 19 6
0.081130 -0.236232 -0.636000 16 17 4
0.082582 -0.236975 -0.638000 9 16 13
0.083779 -0.236975 -0.638000 15 21 23
0.084709 -0.236232 -0.636000 21 21 15
0.085902 -0.236232 -0.636000 21 21 8
0.008260 -0.234812 -0.629000 90 97 80
0.009425 -0.234439 -0.628000 116 111 101
0.010586 -0.234065 -0.627000 142 114 104
0.011762 -0.234065 -0.627000 142 114 108
0.012918 -0.233692 -0.626000 143 109 108
0.014092 -0.233692 -0.626000 144 109 109
0.015242 -0.233319 -0.625000 146 110 107
0.016336 -0.232199 -0.622000 146 111 105
0.017446 -0.231452 -0.620000 147 112 101
0.018609 -0.231452 -0.620000 146 117 97
0.019740 -0.231079 -0.619000 145 122 101
0.020902 -0.231079 -0.619000 144 117 106
0.022027 -0.230705 -0.618000 144 112 99
0.023186 -0.230705 -0.618000 144 114 93
0.024267 -0.229959 -0.616000 144 116 95
0.025381 -0.229586 -0.615000 144 118 98
0.026535 -0.229586 -0.615000 143 121 100
0.027644 -0.229212 -0.614000 144 109 103
0.028795 -0.229212 -0.614000 144 107 102
0.029947 -0.229212 -0.614000 142 106 101
0.031099 -0.229212 -0.614000 140 105 99
0.032251 -0.229212 -0.614000 142 111 97
0.033403 -0.229212 -0.614000 143 118 99
0.034555 -0.229212 -0.614000 145 120 101
0.035765 -0.229586 -0.615000 147 123 99
0.036858 -0.229212 -0.614000 145 110 98
0.038010 -0.229212 -0.614000 143 110 96
0.039162 -0.229212 -0.614000 142 113 95
0.040248 -0.228839 -0.613000 140 116 84
0.041398 -0.228839 -0.613000 129 107 73
0.042548 -0.228839 -0.613000 119 99 64
0.043627 -0.228466 -0.612000 91 79 56
0.044775 -0.228466 -0.612000 64 59 38
0.045923 -0.228466 -0.612000 54 30 20
0.046994 -0.228092 -0.611000 44 2 35
0.048219 -0.228466 -0.612000 29 5 50
0.049367 -0.228466 -0.612000 15 9 35
0.050515 -0.228466 -0.612000 23 17 20
0.059992 -0.229586 -0.615000 27 21 18
0.061146 -0.229586 -0.615000 28 18 16
0.062401 -0.229959 -0.616000 24 18 15
0.063556 -0.229959 -0.616000 21 19 25
0.064712 -0.229959 -0.616000 23 19 36
0.065974 -0.230332 -0.617000 25 19 24
0.067241 -0.230705 -0.618000 21 18 12
0.068511 -0.231079 -0.619000 17 15 18
0.069672 -0.231079 -0.619000 23 16 25
0.070948 -0.231452 -0.620000 29 17 25
0.072460 -0.232572 -0.623000 29 25 26
0.073747 -0.232945 -0.624000 30 27 20
0.074797 -0.232572 -0.623000 28 23 15
0.075966 -0.232572 -0.623000 27 20 9
0.078744 -0.237425 -0.636000 24 18 4
0.079937 -0.237425 -0.636000 21 14 6
0.081130 -0.237425 -0.636000 17 15 8
0.082582 -0.238172 -0.638000 12 17 20
0.083516 -0.237425 -0.636000 15 20 33
0.085242 -0.238918 -0.640000 19 24 23
0.086443 -0.238918 -0.640000 22 22 14
0.087643 -0.238918 -0.640000 25 21 14
0.008260 -0.235992 -0.629000 46 54 75
0.009425 -0.235617 -0.628000 96 107 106
0.010603 -0.235617 -0.628000 146 111 105
0.011762 -0.235241 -0.627000 143 115 105
0.012897 -0.234491 -0.625000 140 111 104
0.014070 -0.234491 -0.625000 141 110 104
0.015242 -0.234491 -0.625000 142 110 104
0.016336 -0.233366 -0.622000 142 111 104
0.017446 -0.232615 -0.620000 143 109 100
0.018609 -0.232615 -0.620000 142 107 96
0.019740 -0.232240 -0.619000 141 108 99
0.020902 -0.232240 -0.619000 139 110 101
0.022027 -0.231865 -0.618000 138 108 98
0.023186 -0.231865 -0.618000 138 107 95
0.024306 -0.231490 -0.617000 139 106 95
0.025381 -0.230739 -0.615000 138 106 96
0.026535 -0.230739 -0.615000 137 105 98
0.027689 -0.230739 -0.615000 137 104 101
0.028795 -0.230364 -0.614000 137 104 101
0.029996 -0.230739 -0.615000 136 105 101
0.031150 -0.230739 -0.615000 135 102 101
0.032251 -0.230364 -0.614000 133 99 100
0.033403 -0.230364 -0.614000 132 102 103
0.034611 -0.230739 -0.615000 137 106 105
0.035765 -0.230739 -0.615000 143 107 101
0.036858 -0.230364 -0.614000 138 108 96
0.038010 -0.230364 -0.614000 134 106 91
0.039098 -0.229989 -0.613000 131 104 87
0.040248 -0.229989 -0.613000 129 90 62
0.041398 -0.229989 -0.613000 109 76 37
0.042548 -0.229989 -0.613000 90 45 37
0.043627 -0.229614 -0.612000 50 15 38
0.044775 -0.229614 -0.612000 11 10 26
0.045848 -0.229239 -0.611000 12 5 14
0.046994 -0.229239 -0.611000 13 10 29
0.048140 -0.229239 -0.611000 20 16 44
0.049125 -0.228488 -0.609000 27 18 30
0.050267 -0.228488 -0.609000 26 21 17
0.051410 -0.228488 -0.609000 26 22 9
0.052552 -0.228488 -0.609000 34 17 2
0.058743 -0.230364 -0.614000 26 21 13
0.059895 -0.230364 -0.614000 28 21 10
0.061146 -0.230739 -0.615000 31 21 9
0.062300 -0.230739 -0.615000 26 21 9
0.063556 -0.231114 -0.616000 21 18 14
0.064712 -0.231114 -0.616000 23 17 18
0.065974 -0.231490 -0.617000 25 17 15
0.067241 -0.231865 -0.618000 24 17 13
0.068511 -0.232240 -0.619000 24 18 17
0.069672 -0.232240 -0.619000 25 19 21
0.070948 -0.232615 -0.620000 27 18 20
0.072343 -0.233366 -0.622000 27 30 19
0.073747 -0.234116 -0.624000 27 21 16
0.074917 -0.234116 -0.624000 23 17 12
0.076210 -0.234491 -0.625000 20 16 8
0.077382 -0.234491 -0.625000 19 16 4
0.079811 -0.238243 -0.635000 19 14 6
0.081003 -0.238243 -0.635000 17 12 9
0.082194 -0.238243 -0.635000 16 15 16
0.084042 -0.240119 -0.640000 16 20 23
0.085242 -0.240119 -0.640000 17 18 20
0.086443 -0.240119 -0.640000 23 17 17
0.087643 -0.240119 -0.640000 30 15 16
0.088844 -0.240119 -0.640000 23 13 15
0.010603 -0.236795 -0.628000 118 96 106
0.011781 -0.236795 -0.628000 128 112 102
0.012938 -0.236418 -0.627000 139 113 101
0.014115 -0.236418 -0.627000 138 108 100
0.015266 -0.236041 -0.626000 137 107 101
0.016362 -0.234909 -0.623000 137 105 103
0.017502 -0.234532 -0.622000 138 104 99
0.018669 -0.234532 -0.622000 137 106 96
0.019772 -0.233778 -0.620000 137 109 96
0.020935 -0.233778 -0.620000 135 107 97
0.022063 -0.233401 -0.619000 134 102 97
0.023186 -0.233024 -0.618000 133 103 98
0.024306 -0.232647 -0.617000 133 112 96
0.025381 -0.231893 -0.615000 132 104 94
0.026535 -0.231893 -0.615000 131 104 97
0.027644 -0.231516 -0.614000 125 103 100
0.028795 -0.231516 -0.614000 120 103 101
0.029996 -0.231893 -0.615000 116 97 102
0.031099 -0.231516 -0.614000 113 92 103
0.032251 -0.231516 -0.614000 114 97 104
0.033403 -0.231516 -0.614000 116 103 107
0.034555 -0.231516 -0.614000 118 106 110
0.035706 -0.231516 -0.614000 120 110 102
0.036858 -0.231516 -0.614000 113 103 95
0.038010 -0.231516 -0.614000 107 96 87
0.039098 -0.231139 -0.613000 96 82 79
0.040248 -0.231139 -0.613000 86 69 40
0.041398 -0.231139 -0.613000 71 39 1
0.042479 -0.230762 -0.612000 55 3 11
0.043627 -0.230762 -0.612000 34 16 21
0.044775 -0.230762 -0.612000 14 7 15
0.045848 -0.230385 -0.611000 17 14 9
0.046994 -0.230385 -0.611000 20 21 23
0.047982 -0.229631 -0.609000 24 24 38
0.049125 -0.229631 -0.609000 28 27 26
0.050432 -0.230385 -0.611000 26 25 14
0.051410 -0.229631 -0.609000 23 23 7
0.052725 -0.230385 -0.611000 26 19 1
0.053871 -0.230385 -0.611000 28 18 14
0.055017 -0.230385 -0.611000 27 20 27
0.056163 -0.230385 -0.611000 25 19 21
0.058743 -0.231516 -0.614000 25 20 8
0.059895 -0.231516 -0.614000 26 19 2
0.061146 -0.231893 -0.615000 28 19 3
0.062300 -0.231893 -0.615000 25 21 4
0.063453 -0.231893 -0.615000 22 18 2
0.064712 -0.232270 -0.616000 25 17 1
0.065974 -0.232647 -0.617000 27 17 7
0.067241 -0.233024 -0.618000 23 19 14
0.068511 -0.233401 -0.619000 19 23 15
0.069672 -0.233401 -0.619000 26 21 17
0.070948 -0.233778 -0.620000 34 19 15
0.072343 -0.234532 -0.622000 30 17 13
0.073628 -0.234909 -0.623000 26 15 11
